# This PCD file was generated using the MATLAB® pcwrite function
# from Computer Vision System Toolbox®.
# .PCD v.7 - Point Cloud Data file format
VERSION .7
FIELDS x y z
SIZE 4 4 4
TYPE F F F
COUNT 1 1 1
WIDTH 1363
HEIGHT 1
VIEWPOINT 0 0 0 1 0 0 0
POINTS 1363
DATA ascii
329.922791 -336.877777 2159.067871
330.673035 -337.353668 2159.846436
329.260376 -334.717377 2158.625732
330.846069 -335.926727 2159.359375
224.077881 -333.221954 2159.379883
225.604691 -333.271271 2158.064209
323.885284 -331.679626 2157.692139
326.640442 -332.997528 2158.557373
328.646271 -333.315979 2158.559082
330.400299 -333.051575 2159.745361
223.727798 -330.079865 2159.404785
225.533691 -330.409424 2158.040771
324.171814 -330.042145 2158.380127
325.958130 -330.490479 2158.758057
328.258057 -330.377930 2159.265381
330.882538 -329.974609 2158.919434
222.133682 -327.992828 2159.901855
224.092865 -327.903381 2158.877441
226.712723 -328.543823 2157.920410
324.809906 -327.518738 2157.650879
326.693268 -327.555206 2158.669189
329.105621 -327.274200 2158.396973
330.020111 -327.592133 2158.532471
221.310013 -325.299225 2158.611084
224.043640 -324.847412 2158.149902
225.225616 -324.759094 2157.627686
324.183350 -324.421936 2158.321289
326.599731 -325.063690 2158.928955
327.982635 -324.626526 2159.214111
330.806122 -325.934998 2158.897461
223.770813 -322.999237 2158.172852
323.211029 -323.816986 2157.705078
327.155762 -323.681671 2157.955078
328.847137 -322.797668 2159.179688
223.481659 -320.929993 2158.434082
328.947662 -319.761993 2158.929932
224.211166 -317.967804 2159.313477
225.694199 -318.029358 2158.004150
322.964111 -316.407715 2157.538818
327.059540 -316.752167 2158.393555
329.006378 -317.277374 2158.089355
330.739319 -317.073914 2159.030273
224.673767 -315.336426 2159.653076
226.317734 -315.114838 2158.531982
227.937408 -314.730225 2157.766846
322.484467 -313.936707 2157.666016
323.662323 -314.761139 2158.023926
325.879486 -315.699219 2158.393799
328.660858 -316.016937 2158.356445
331.650269 -316.376495 2159.827148
222.141190 -313.748749 2159.703125
223.776184 -313.646149 2158.517822
226.466019 -313.323608 2158.797363
228.349640 -313.210632 2157.778076
316.924957 -311.790466 2157.632568
318.749786 -312.146698 2158.034912
321.411713 -312.605042 2158.740234
323.752014 -312.511627 2158.588135
326.219635 -313.147156 2159.034668
224.209915 -310.987366 2159.456787
226.594681 -310.254639 2159.119385
228.768906 -310.336823 2158.065918
230.198364 -309.801880 2157.607422
298.720642 -308.939484 2157.501709
319.060883 -311.362213 2158.076660
320.952942 -311.196930 2159.015137
323.926270 -310.493988 2158.081299
326.065643 -310.835663 2159.206787
224.877167 -308.639404 2159.925537
226.644043 -308.372833 2159.411621
228.975891 -307.807617 2158.776855
230.552948 -307.488556 2157.959717
289.449646 -307.043854 2158.055664
290.477325 -307.428101 2158.345215
293.979736 -307.549133 2158.958984
296.172119 -308.104584 2158.243408
298.030396 -308.514893 2157.729492
301.253998 -307.494965 2157.966553
303.326508 -306.962341 2158.158203
314.737549 -306.984924 2157.543701
315.859955 -306.671509 2157.898682
320.886932 -307.523712 2159.615967
326.651672 -308.737061 2159.333008
327.540436 -308.454254 2159.889160
227.344849 -303.933380 2159.972412
228.977722 -306.095367 2159.779541
230.804016 -305.025726 2158.922852
234.062286 -304.394714 2158.201416
236.026703 -304.815918 2158.313232
251.740997 -304.078857 2157.767578
259.023590 -305.568542 2157.909912
260.801483 -305.970215 2157.910645
262.996155 -306.033905 2157.707275
265.571411 -303.981873 2159.704590
287.131165 -304.663361 2158.919678
288.201416 -305.329926 2159.202148
290.440948 -305.196533 2159.041992
294.238739 -305.731567 2158.279297
296.197723 -305.708557 2158.922607
297.663025 -305.880859 2158.205811
301.938843 -305.221436 2159.793945
304.018768 -305.308838 2159.319092
306.374786 -305.030548 2158.925293
308.928040 -304.723938 2158.895752
311.381592 -304.793640 2159.442139
313.192871 -304.645569 2159.527344
317.176453 -306.306091 2158.465576
319.324402 -305.770874 2159.577881
320.608704 -305.945404 2159.873535
325.236389 -303.927277 2159.997559
228.840744 -303.506409 2159.594971
231.208633 -303.405518 2158.878662
234.308792 -302.689331 2159.032227
236.150467 -302.592865 2158.354004
238.215378 -302.476257 2157.823730
240.357071 -301.434875 2157.566650
251.328094 -303.081116 2157.791748
253.811783 -303.386658 2158.243896
256.035461 -302.721069 2159.649414
266.361084 -303.483856 2159.401855
267.819275 -302.836487 2158.109863
286.386810 -302.752228 2159.353516
288.074341 -303.221161 2158.485352
301.848816 -302.998444 2159.864258
303.705719 -303.329346 2159.301025
306.180267 -303.614166 2158.623047
308.918121 -302.915527 2158.550781
311.129578 -303.496826 2158.154053
313.725098 -303.132904 2158.225098
316.148193 -302.580994 2158.802979
318.618439 -302.077087 2159.631348
323.247833 -303.350983 2159.167236
236.693298 -300.817169 2158.747559
238.522156 -299.782501 2159.616455
240.722305 -299.885345 2159.310791
249.657471 -300.454346 2159.239014
250.209351 -301.176147 2158.492676
268.733307 -300.198517 2158.610107
270.327209 -299.581940 2157.719727
286.415070 -300.475739 2159.756348
307.063873 -300.355591 2159.556641
308.873871 -300.444763 2159.336914
311.056641 -300.757874 2159.057861
313.965271 -300.372284 2159.468994
269.194885 -298.049377 2158.902588
270.115601 -298.337158 2157.953857
284.393799 -297.400269 2158.385498
285.487488 -297.359741 2159.018066
269.404968 -294.896729 2158.657715
270.109985 -296.153900 2157.913330
284.270569 -294.788544 2159.014648
285.023560 -295.458679 2158.476074
269.469910 -292.576874 2159.187012
270.044128 -293.064484 2157.960205
283.011078 -291.873077 2159.595215
269.404694 -290.167938 2158.785400
283.234039 -290.339325 2159.059326
285.118256 -289.960022 2159.211914
269.473297 -287.986938 2158.250488
283.573120 -287.750488 2158.823486
285.316833 -288.006958 2159.687256
268.869598 -284.817139 2158.641846
284.349518 -285.174561 2159.518066
268.603973 -282.810242 2158.496338
284.731445 -282.262726 2159.135498
285.901642 -283.467316 2158.235596
267.409271 -279.234680 2159.469727
268.127472 -280.048004 2158.626953
284.641693 -280.656403 2158.441895
286.319794 -279.670135 2158.527100
267.082275 -277.362366 2159.296875
267.847748 -277.790955 2158.229004
285.998169 -277.849121 2159.032715
287.796021 -278.166473 2159.754883
266.788452 -275.033783 2158.801025
267.674286 -275.418793 2157.644775
286.112335 -276.154541 2159.410645
287.860352 -274.328125 2157.724854
266.352448 -272.655945 2158.842529
288.098694 -272.271210 2159.599365
262.358337 -269.167969 2158.985596
264.149811 -270.157410 2159.741699
266.062378 -270.438141 2158.488770
287.179291 -270.540009 2158.433838
287.802856 -270.094452 2158.898438
290.599426 -269.046326 2157.731934
261.702332 -267.812836 2159.050781
264.561493 -267.604370 2159.608154
265.414642 -268.034698 2158.454590
287.127075 -267.492432 2158.128662
287.791687 -267.502167 2158.713623
261.337372 -266.153809 2159.784668
264.141083 -265.169189 2158.813232
265.217072 -265.565491 2157.848877
287.274506 -265.637482 2157.891602
288.897308 -264.509949 2158.743164
290.212280 -263.929779 2159.978027
298.543518 -264.934418 2159.654541
262.047150 -262.401642 2159.277100
263.422974 -262.810333 2158.378906
289.144318 -263.164948 2157.850342
290.427582 -262.351166 2158.994141
293.310852 -261.743439 2158.958496
298.043152 -262.523315 2159.580322
259.977448 -259.343323 2159.959717
261.695953 -260.495636 2158.487793
262.798981 -260.957458 2157.637939
291.788788 -260.112000 2159.073975
293.699493 -261.261932 2159.644531
298.109955 -261.049255 2159.905762
259.862427 -257.669067 2159.640869
261.048828 -257.685364 2158.193115
294.705536 -257.354187 2158.827881
295.028259 -258.234406 2159.762695
259.996918 -254.435181 2159.842041
260.583466 -254.936630 2158.818604
292.403992 -253.960144 2157.561279
293.521088 -254.738235 2157.979980
261.004486 -252.661423 2159.628906
292.136566 -252.451126 2158.382080
293.552429 -253.112411 2158.355957
295.076050 -253.263977 2159.854980
262.168213 -251.161469 2159.806152
263.730713 -250.245911 2159.591553
266.916626 -249.984863 2159.035156
268.465515 -249.925690 2158.287842
287.038147 -249.197372 2159.141113
288.403473 -250.042831 2158.257080
291.344086 -250.878479 2158.745117
292.618469 -250.839844 2159.866455
266.649139 -248.853119 2159.928467
269.424500 -248.347763 2159.281982
270.561584 -247.602768 2159.062012
284.641266 -248.078812 2158.578613
286.057129 -248.247513 2159.312500
269.002167 -244.451370 2159.581543
271.546692 -244.833496 2159.345947
272.852753 -244.177567 2159.010986
282.080078 -244.115082 2158.349121
283.397522 -244.627533 2158.378174
285.901764 -245.160538 2159.426514
268.807129 -242.481964 2159.245117
271.820557 -242.559418 2159.011719
273.843262 -242.807755 2158.449707
275.810425 -242.193832 2158.501953
278.411438 -241.818222 2158.063965
281.333679 -243.010315 2158.075439
283.614929 -242.247589 2158.789795
285.003357 -243.883942 2158.434326
266.362823 -239.759033 2159.637695
268.841370 -240.032959 2158.368408
271.534821 -240.189240 2158.631104
273.717194 -240.025833 2158.831543
276.442017 -240.267731 2159.023682
278.655212 -240.499237 2158.656738
281.289520 -240.252808 2158.270020
283.242920 -240.116531 2159.337891
266.248505 -238.615524 2159.784912
272.102478 -238.369171 2159.780762
273.696777 -238.087372 2158.990967
276.288269 -237.896011 2159.184814
278.833405 -238.151123 2159.250732
280.023743 -237.845703 2159.334229
272.436340 -234.261642 2159.847412
273.084991 -234.113281 2159.733154
276.543854 -235.383087 2158.962891
277.969086 -234.439026 2159.107910
274.510559 -233.350830 2159.671875
276.458618 -233.224457 2159.309814
280.765167 -232.633057 2158.890625
276.294037 -230.795563 2159.804688
281.521210 -231.324524 2159.944092
265.986725 -183.007889 2158.701904
267.766479 -182.016464 2158.110352
234.047638 -394.353699 2162.000977
235.964157 -395.918701 2160.992676
234.060822 -392.720154 2161.014160
235.058289 -393.087006 2160.239990
231.631348 -389.570862 2161.696777
233.502411 -390.257843 2160.508057
358.404663 -389.635376 2161.152344
229.091217 -387.651520 2161.569336
230.963699 -387.746704 2160.548340
232.920883 -388.783203 2160.077881
224.269226 -384.175079 2162.221436
228.836792 -385.964691 2160.661621
223.579727 -382.442383 2161.765137
225.257385 -383.274292 2160.878906
327.185638 -382.582520 2160.006592
328.613647 -382.157318 2161.470215
223.720123 -379.659821 2161.109131
223.856888 -378.168854 2161.119873
225.109711 -376.808411 2160.087891
326.780396 -376.870270 2160.534180
328.633606 -376.831238 2161.303711
330.800446 -376.650543 2161.811523
222.289322 -374.561951 2161.802490
222.809021 -374.055939 2161.202148
326.407623 -374.458771 2160.490967
329.472809 -376.275024 2160.449219
330.585449 -375.485046 2161.789551
223.690857 -373.127838 2160.282715
327.139832 -373.647552 2161.721191
329.394348 -373.466705 2160.671631
331.137451 -373.170532 2161.664063
221.702988 -370.823059 2161.880371
223.268372 -369.943970 2160.503174
223.990067 -367.828796 2160.122314
331.284485 -366.794983 2161.351318
220.895020 -365.529907 2161.445313
329.195282 -364.651825 2160.386719
331.130310 -365.216858 2161.403809
221.228668 -363.841278 2161.772217
222.873093 -363.871521 2160.149902
329.449402 -362.576874 2161.055908
330.699432 -362.665680 2161.797852
221.402573 -360.912567 2161.672852
222.958725 -361.034973 2160.301758
329.553772 -359.414886 2160.244873
330.912292 -360.144623 2161.169189
333.152313 -359.769867 2162.365967
221.379288 -357.468506 2161.599609
223.116669 -358.292084 2160.118652
329.723694 -358.334869 2160.505127
331.107178 -357.689514 2161.364502
333.083557 -356.476654 2161.767090
221.644226 -355.090820 2161.298096
222.863647 -355.535431 2160.166992
329.882172 -355.635773 2160.149170
331.075073 -355.672485 2161.188721
332.558350 -355.937897 2161.246094
221.363373 -353.704102 2161.026123
222.786789 -353.697388 2160.211426
329.647400 -353.427338 2160.265137
331.147888 -352.742523 2161.552002
333.167145 -352.513214 2162.093506
222.041367 -350.405945 2160.506592
222.530060 -350.382935 2160.128418
331.775116 -350.490021 2160.534668
332.975342 -350.820129 2161.941406
222.190491 -348.483246 2160.452148
331.585785 -346.929382 2160.947266
333.660278 -347.872284 2161.500488
221.201859 -344.987671 2162.125000
331.698517 -346.032135 2161.550293
222.056198 -343.257202 2161.072021
222.640640 -342.335480 2160.484375
331.812439 -339.955627 2161.982422
331.331848 -337.504974 2161.061035
333.215118 -338.025818 2161.911621
222.306366 -334.168640 2161.067139
329.984436 -335.661652 2160.024170
330.459442 -336.021912 2160.196289
221.568161 -332.684052 2162.107178
222.836960 -333.410034 2160.565430
331.618896 -333.288422 2161.117432
332.703979 -333.442291 2162.394287
221.782089 -330.116577 2161.748047
222.865143 -329.307159 2160.567871
328.684052 -330.905273 2160.508545
330.868927 -330.645996 2161.611084
333.060394 -330.615265 2161.225586
221.087646 -327.810242 2161.531250
223.192352 -328.373810 2160.300537
329.322876 -326.594482 2161.354248
330.615265 -326.642090 2161.847656
332.907104 -327.223083 2161.719727
219.920624 -324.592621 2162.392578
220.361420 -325.235291 2161.439209
326.779785 -324.870422 2160.897949
328.724823 -325.445526 2161.130127
330.825653 -325.503174 2161.729492
219.903290 -322.442078 2162.190186
220.065735 -323.267365 2161.856934
329.452240 -323.875336 2160.322754
330.732727 -323.780090 2161.475586
221.903992 -319.424957 2161.254150
222.701141 -319.999512 2160.333252
334.209229 -319.369293 2161.655029
221.409729 -317.216003 2162.077393
223.226639 -316.831543 2160.467529
331.753540 -317.073029 2160.958008
332.826111 -317.497711 2161.715088
219.353012 -314.602814 2161.768066
221.959427 -314.949982 2161.568359
223.306320 -315.043518 2160.961182
324.766907 -313.922363 2160.585449
326.217773 -315.065186 2161.300049
328.925598 -315.390686 2161.388916
332.118225 -316.249786 2160.643066
332.991150 -316.131042 2162.062988
219.455109 -313.010345 2162.356689
221.102234 -312.805878 2161.562012
223.651703 -313.390045 2161.174805
225.001602 -313.246735 2160.033447
322.380035 -311.910217 2160.007568
324.004730 -312.752747 2160.451904
326.231781 -312.271942 2161.755127
328.724060 -313.045959 2161.036377
330.350830 -313.139771 2162.119873
221.452301 -310.279816 2161.480225
224.106277 -309.676544 2161.207031
225.471588 -309.878662 2160.304932
322.372650 -310.864716 2160.072266
323.394318 -310.574677 2160.629639
326.187622 -310.314819 2161.402100
328.702667 -310.447845 2161.267334
221.436234 -307.277802 2162.369141
224.245590 -308.543732 2161.857666
225.979156 -308.224091 2160.731934
291.266937 -306.678101 2160.698975
294.413422 -306.485107 2160.148926
322.031342 -308.132233 2160.071777
323.338562 -308.719147 2160.735840
328.888000 -307.924744 2161.046875
330.178864 -307.452271 2162.238525
222.393433 -306.322571 2162.056152
223.655014 -305.754333 2161.441406
226.373077 -304.808075 2161.380859
228.139114 -304.746765 2160.863281
231.188171 -303.917603 2160.579346
233.756989 -303.940857 2160.017822
264.489014 -304.019958 2160.523682
287.146484 -304.006836 2160.081299
289.370178 -305.370239 2161.932861
291.015137 -305.545135 2161.687012
293.432159 -305.189178 2161.455811
295.945313 -305.721649 2160.648926
299.350189 -304.718811 2160.895264
300.710785 -304.513275 2160.633789
303.077759 -304.144562 2160.310547
314.607513 -304.243835 2160.118896
315.667847 -304.041443 2160.351563
319.998352 -305.611816 2160.202637
321.233215 -305.284332 2160.711914
323.421112 -305.473358 2161.646240
326.326294 -304.481995 2160.877441
328.621796 -304.981873 2162.010742
226.704071 -303.505951 2162.398682
228.772003 -303.306946 2161.169434
231.321091 -302.962311 2161.205811
233.107666 -302.216949 2160.377930
257.291748 -302.410645 2160.514160
258.949341 -302.007141 2161.681396
264.497772 -302.952881 2161.651123
266.141510 -302.366516 2161.191162
286.137299 -302.436493 2161.072266
288.623749 -302.329956 2161.271973
290.006561 -303.784241 2161.063965
293.370331 -303.779785 2162.351563
298.859680 -301.937103 2161.824219
300.829865 -303.125183 2160.739746
309.752319 -302.339264 2160.110840
310.403809 -301.972473 2160.352539
314.681091 -303.647705 2160.190918
316.552063 -303.215881 2160.828125
318.352448 -302.984344 2161.667969
320.816528 -302.692627 2161.658447
324.777130 -303.477722 2160.041748
326.142059 -303.590637 2160.877197
328.195862 -303.727295 2162.296875
229.967316 -301.147278 2162.461182
231.650681 -300.883911 2161.874512
232.836823 -301.211121 2161.195313
239.338211 -299.197418 2160.504639
241.080231 -299.248322 2160.442139
243.915100 -299.270966 2160.722656
246.446793 -299.506683 2160.567383
248.761093 -299.570160 2161.228271
251.190948 -299.528687 2161.934326
266.864227 -299.746979 2162.253662
268.214172 -299.556335 2161.453369
284.943878 -299.924133 2162.410645
286.018158 -300.563782 2161.435547
287.638336 -301.354584 2161.283936
298.074097 -301.269928 2162.350342
304.474121 -299.603790 2161.237793
306.289307 -299.344696 2161.125000
307.745544 -299.657318 2160.311768
312.152588 -301.219727 2161.013916
313.459625 -299.683716 2160.894775
315.041077 -300.215363 2162.265137
321.707703 -301.185852 2161.486816
322.760223 -300.851959 2162.344238
234.614120 -298.333069 2162.264648
236.617752 -298.623199 2161.932861
238.797180 -298.526581 2161.738770
240.932861 -298.673401 2161.400879
243.753296 -298.535065 2161.592529
246.191498 -298.244354 2161.967285
248.370956 -298.609497 2161.689209
250.498413 -297.679779 2162.238770
267.333435 -298.050385 2160.964355
268.303619 -297.796814 2160.986572
284.224274 -297.467468 2161.533203
306.176575 -298.628052 2162.258789
308.732666 -298.686401 2162.331055
311.076843 -298.790558 2161.966553
313.258057 -298.736115 2161.885742
316.164856 -298.521057 2162.145264
317.706665 -298.254608 2162.456055
268.599274 -294.345703 2161.761475
284.682007 -294.693787 2160.986572
285.343475 -295.580933 2160.576172
268.824280 -292.733490 2161.289795
285.226196 -293.525330 2161.905273
268.633301 -289.663818 2161.137939
283.498718 -290.146301 2161.753662
268.534424 -287.584259 2160.825439
283.991821 -287.907990 2161.750000
285.307068 -286.673767 2161.641113
267.049072 -283.971954 2162.417236
268.004883 -285.211792 2161.311768
284.485382 -285.385284 2161.239990
285.183685 -285.525177 2161.936768
267.103516 -282.815521 2161.969727
267.836761 -283.556030 2160.890869
284.805725 -283.028107 2161.120117
285.414307 -282.718964 2161.764160
266.757080 -279.842712 2161.285400
267.593262 -280.154999 2160.273438
286.221497 -280.161163 2161.559814
266.133453 -277.938293 2161.094482
286.390137 -278.004211 2160.586670
288.366608 -277.012909 2161.462158
264.376953 -275.150604 2161.875732
265.502716 -275.049530 2160.696777
287.055603 -275.886047 2160.677246
288.540985 -275.378906 2161.543457
290.077972 -275.977142 2161.573975
261.680450 -271.605042 2162.387451
264.372681 -272.775391 2161.152100
265.316437 -272.950317 2160.391846
289.280151 -273.268250 2161.492432
290.484955 -272.051514 2162.077393
261.741547 -270.164856 2162.299805
263.528137 -270.728271 2161.397705
265.115997 -271.395447 2160.211914
288.424347 -269.153656 2160.149658
290.684509 -270.569397 2162.310059
256.822540 -267.083862 2162.279541
258.717072 -267.565002 2162.218506
261.370209 -267.816223 2162.361084
263.547882 -266.885254 2160.874512
288.620636 -268.204895 2160.238037
299.907593 -266.515747 2160.652832
300.223083 -266.558502 2160.832520
304.418793 -266.746460 2161.850830
257.366455 -264.607971 2161.857666
259.055115 -265.460419 2161.655762
261.715179 -265.378174 2161.977295
263.230743 -266.010040 2160.767090
289.295532 -265.569153 2160.772461
291.282532 -264.384827 2162.080566
299.382751 -266.037354 2160.222412
301.711609 -265.408630 2161.058350
303.566895 -265.590332 2161.568359
305.442780 -265.541931 2162.447510
259.477905 -262.004578 2161.234863
261.012360 -263.069489 2161.642578
291.216949 -263.317596 2161.155762
293.892578 -262.038544 2161.604248
299.614441 -261.877502 2160.079102
301.077423 -262.900574 2160.599854
259.499725 -259.641876 2161.597656
260.268433 -259.906342 2160.755127
294.254211 -260.674164 2161.478271
295.786987 -259.967438 2161.688965
298.540222 -260.296509 2160.544922
301.091644 -260.008698 2161.560303
303.099426 -259.120789 2162.235840
259.328827 -257.819855 2161.015381
260.249451 -258.044861 2160.837891
296.041931 -258.643066 2161.386230
298.609009 -257.858398 2161.304443
300.216248 -257.266907 2160.288086
306.311035 -257.827057 2162.375000
259.185364 -255.139709 2161.941162
260.134766 -254.219406 2160.490723
298.913147 -255.794098 2162.367676
301.182373 -255.510361 2160.933838
305.873169 -255.827240 2162.380615
259.715515 -253.592957 2161.936768
260.618103 -252.582581 2161.091553
294.397064 -251.801086 2161.406250
295.263428 -252.816849 2161.284668
302.446777 -252.950775 2160.517334
302.887573 -251.942535 2161.084961
261.909943 -250.850388 2161.061768
263.235840 -249.995255 2160.937500
286.787354 -249.202621 2160.764648
288.554901 -249.326843 2160.972900
290.139587 -249.157913 2162.025879
293.589630 -251.019272 2160.973389
303.343353 -250.857086 2161.793213
265.873566 -247.607712 2161.721436
268.879669 -247.256424 2161.330078
270.199219 -247.087555 2160.177490
286.652863 -248.390823 2160.998535
287.992737 -248.421066 2161.610596
261.920898 -244.232208 2162.293457
264.281891 -246.133575 2162.097900
266.814178 -245.349075 2161.104736
269.002655 -245.365799 2161.335449
270.646667 -244.715210 2160.513184
287.326996 -244.709579 2161.001709
288.050476 -245.128738 2161.874023
290.918030 -244.737518 2161.707764
263.729980 -242.614273 2161.953613
265.917847 -242.116104 2161.720703
268.557617 -242.996017 2161.625732
270.733459 -243.396347 2160.556396
284.794250 -241.685608 2160.022461
286.192078 -242.730179 2161.600098
287.605743 -243.816727 2162.100830
291.226715 -243.325943 2161.102783
293.266602 -243.028671 2161.803467
261.992126 -240.481293 2162.314941
264.160461 -239.754059 2161.656494
266.233917 -240.063995 2160.958496
268.661255 -240.002243 2161.638428
270.796631 -240.858963 2160.894043
284.698853 -239.975281 2160.085449
286.467773 -240.728271 2161.659668
287.644684 -240.519592 2161.962402
290.923157 -238.986359 2160.562256
264.387939 -238.892197 2162.250000
266.511963 -237.415161 2160.706299
269.370789 -238.768265 2161.582764
270.779602 -238.703033 2160.646729
291.540466 -238.081635 2161.580078
267.076080 -235.885788 2162.201416
268.627991 -235.079285 2161.393799
271.096313 -234.522705 2160.376465
283.869934 -234.173492 2161.302246
288.504242 -234.260132 2160.697754
269.213501 -231.942383 2161.971680
271.225800 -231.919571 2161.903076
273.920959 -232.101624 2160.947998
275.580688 -232.027435 2160.242676
281.315491 -231.906158 2161.610107
283.438080 -232.720276 2162.119873
286.673767 -232.286118 2160.837891
287.821930 -233.686752 2160.509766
268.939301 -231.401581 2162.451660
271.597992 -230.523911 2161.717285
273.946381 -230.770523 2160.770020
276.031494 -230.674637 2160.956787
279.096771 -230.126648 2161.737793
281.096191 -230.971054 2161.825684
283.544800 -230.478714 2161.411133
285.303497 -231.074600 2161.256836
275.125061 -228.906433 2162.482178
279.173889 -228.363312 2161.637939
280.069214 -228.735840 2161.120850
263.667084 -182.771927 2161.593506
234.311386 -397.226379 2163.808838
235.007477 -396.970947 2163.064453
231.697098 -394.077942 2164.205322
233.061432 -395.447510 2163.763428
229.795105 -391.847351 2164.638184
231.357407 -392.632935 2163.948242
232.583679 -393.439331 2162.863281
226.901184 -389.247528 2164.274658
228.772583 -389.874725 2163.861328
230.756821 -390.742950 2163.235352
226.277390 -387.581848 2163.447021
228.557495 -388.348328 2162.663086
222.158203 -384.842896 2164.578857
223.110550 -385.029816 2163.784912
221.951431 -383.185577 2163.806396
223.039551 -383.057007 2162.729004
329.883240 -381.848572 2162.780029
330.677765 -381.562866 2163.479004
221.621979 -379.997528 2164.091797
222.730423 -379.476532 2162.851074
331.776001 -381.118103 2164.497559
221.389557 -377.661499 2163.622559
329.086090 -377.241455 2163.103516
331.477051 -376.925323 2163.390137
332.745483 -376.569702 2163.868164
367.994781 -377.303284 2163.367188
221.217819 -375.627502 2163.178223
331.519135 -374.825195 2163.607178
333.180328 -375.411163 2164.534424
219.089630 -372.130371 2164.203613
220.089966 -371.658203 2163.295410
329.045746 -372.394470 2163.260010
330.996918 -372.324280 2164.281250
220.815201 -371.308411 2162.623291
329.934479 -369.730560 2163.008057
330.454102 -369.399384 2163.200684
331.723572 -368.068939 2163.671631
333.503845 -367.343628 2164.015625
335.069672 -366.768494 2164.651367
217.266251 -366.066132 2164.785645
218.487656 -364.865356 2163.692139
331.336853 -364.972290 2163.374268
333.379547 -365.496216 2163.880615
219.252380 -362.609741 2163.800293
220.250427 -362.628265 2162.797607
331.986084 -362.987061 2163.616455
333.777649 -362.674133 2164.164795
219.228088 -360.652679 2163.972656
220.243652 -359.438812 2162.891846
332.062378 -360.660400 2163.180176
333.528168 -359.295441 2163.977051
218.586807 -358.316833 2164.335938
220.242401 -357.335358 2162.791016
331.590393 -357.749939 2163.256836
333.374207 -358.221893 2163.903320
335.726898 -357.313782 2164.845703
218.982010 -354.773071 2164.044678
220.425323 -355.045715 2162.778076
331.766022 -354.778656 2163.230713
333.549835 -354.591309 2163.945557
219.422470 -353.492523 2164.225098
220.239212 -351.784424 2162.993896
332.098267 -352.313873 2162.813965
333.471008 -351.765381 2163.409424
219.130768 -350.181641 2164.379150
334.002136 -350.054779 2163.530273
335.008667 -350.168884 2164.794922
218.614334 -347.364014 2164.157227
220.348419 -346.727936 2162.972900
333.841278 -347.466949 2164.063721
335.561432 -347.571045 2164.348633
217.331848 -345.803467 2164.981689
218.890411 -345.579651 2163.356689
220.742767 -346.069855 2162.676270
334.177002 -344.960754 2164.156006
218.495544 -342.125427 2164.772705
332.413696 -341.509644 2162.596191
333.640900 -342.566467 2163.965332
218.987106 -340.349762 2164.462646
333.803223 -339.918488 2163.627686
335.422791 -340.167725 2164.571289
332.421234 -338.883698 2162.592529
333.742554 -338.857483 2162.764893
335.827667 -337.451935 2164.379883
220.466248 -335.503326 2163.159668
334.205383 -334.113403 2163.949463
219.187683 -331.909119 2164.906738
221.315521 -331.797119 2162.537109
333.627716 -333.231750 2163.564941
219.460175 -329.743256 2164.326416
220.418732 -330.191956 2163.194092
331.610565 -330.134277 2163.357422
333.695435 -329.994690 2163.698730
335.689423 -330.586487 2164.526367
219.351074 -327.701294 2164.046387
220.367493 -328.091309 2163.102051
330.677155 -327.091461 2163.492920
333.321228 -328.028992 2164.562012
335.130859 -328.863922 2164.680664
219.242844 -325.812866 2163.898438
329.200531 -324.943573 2163.169189
330.474396 -324.811340 2164.444824
219.192062 -321.771942 2163.660889
332.192444 -323.512451 2162.754150
333.462799 -322.746155 2163.703613
336.970093 -322.161835 2164.500977
218.822739 -320.552094 2164.297852
220.745789 -318.911377 2162.777100
334.691528 -321.247864 2164.887695
335.810608 -320.638428 2163.145020
219.657089 -317.698242 2164.522705
220.680908 -317.377930 2163.222900
329.871704 -317.878418 2163.229980
330.655884 -317.851227 2163.663086
333.561066 -316.803711 2163.063721
335.101807 -316.753174 2164.962891
219.335419 -315.003967 2163.793701
220.894226 -315.136932 2163.368164
327.108459 -313.927155 2162.558105
329.872711 -315.540741 2162.546875
331.909668 -314.579956 2163.472412
333.168457 -314.737762 2163.696045
217.362183 -312.053131 2164.927490
218.919052 -313.147461 2164.266602
220.987793 -313.493744 2163.754150
327.028107 -311.916199 2162.730713
328.712769 -312.725433 2163.752441
331.053314 -312.927948 2164.093506
332.592010 -311.900146 2164.848145
222.165451 -309.728302 2163.526855
222.670715 -309.473572 2163.008545
326.919983 -310.098694 2163.122803
328.106323 -310.652954 2164.072021
221.747437 -307.873962 2164.022949
223.183243 -307.623566 2163.418945
331.233032 -306.908081 2163.663574
223.812302 -305.302002 2163.639404
225.447617 -304.748047 2162.615479
289.247894 -304.372620 2162.847900
292.165619 -304.063324 2162.585449
324.229462 -304.385956 2163.070801
326.181610 -305.324615 2163.794678
328.776733 -305.756805 2163.451904
330.467560 -306.011566 2163.438477
224.363541 -303.145142 2164.416748
226.197052 -302.646912 2163.446289
228.558502 -301.880554 2163.703857
230.606842 -301.837921 2162.737793
260.459473 -301.598145 2162.597412
264.407410 -301.868988 2163.359619
265.463531 -301.753937 2162.980713
287.006897 -301.760406 2163.748779
288.480591 -302.741455 2164.043457
291.000427 -302.348083 2163.442871
293.345062 -302.742035 2163.483887
295.964844 -302.480713 2163.990723
297.685303 -303.338806 2162.756836
319.657349 -302.958649 2162.626709
321.343384 -302.615845 2163.712402
323.798462 -302.017395 2164.620117
325.448120 -303.523132 2164.711182
329.151001 -303.715393 2163.055176
330.478027 -303.570404 2164.409180
226.629105 -301.054108 2164.723389
229.332794 -300.545593 2163.989746
230.594177 -300.310486 2163.475098
253.942642 -299.347870 2162.951172
256.603668 -299.107727 2164.379395
261.945648 -300.927826 2163.565918
263.822083 -300.452728 2163.941162
266.119232 -300.466339 2163.149170
284.823944 -299.385315 2163.465820
286.033447 -300.424500 2164.151367
289.123596 -300.001526 2164.427490
291.459869 -300.959564 2163.550781
292.675140 -299.806488 2164.508789
297.017212 -300.445892 2163.224121
297.845673 -300.791290 2163.293457
301.891418 -299.327789 2164.483887
303.783691 -299.642426 2164.198242
306.054657 -299.694946 2164.155029
309.061829 -299.664917 2164.358887
311.172150 -299.375275 2164.620605
313.174591 -299.235504 2164.833496
316.264465 -299.842926 2162.839111
317.856079 -299.302002 2163.858154
324.115265 -300.513641 2164.073242
232.404633 -298.637329 2163.352051
234.127670 -297.818115 2164.043213
236.306213 -297.582825 2163.797852
238.339737 -297.553284 2163.149414
241.381226 -297.458496 2163.258789
243.029785 -297.817230 2162.836182
251.785614 -296.991821 2163.044189
252.930298 -296.587097 2163.731445
264.344971 -298.532288 2164.692627
267.070953 -297.428741 2164.591064
267.638824 -297.298706 2163.275146
284.879517 -297.635254 2164.532227
286.321381 -298.104492 2163.540527
288.812805 -298.805054 2164.880859
294.855255 -298.421478 2164.849365
295.292847 -298.628387 2164.516113
299.335236 -298.514282 2163.983887
301.163025 -298.437958 2163.526855
303.864044 -298.267181 2163.292725
306.129333 -298.446686 2163.500488
308.876953 -298.514923 2163.700928
311.280334 -298.603363 2163.593994
313.128418 -298.735626 2164.950195
318.838104 -298.075867 2163.061279
321.289978 -297.558563 2163.816162
323.291901 -297.656525 2164.818848
236.604904 -295.849182 2164.737061
239.052490 -295.522614 2164.343262
241.033203 -295.347534 2164.197998
244.014297 -294.781128 2164.147705
245.987717 -294.629822 2164.308838
248.418503 -294.334839 2164.706055
250.494949 -294.301849 2164.925049
254.221771 -295.973846 2164.535889
267.270660 -294.910065 2164.710938
268.023285 -294.889160 2163.691406
284.290924 -295.196198 2163.117432
286.059692 -294.695862 2164.309570
238.845779 -292.638245 2164.881592
241.369705 -293.382111 2164.795410
243.514511 -293.338745 2164.678223
245.916336 -293.546448 2164.438232
248.389404 -293.418060 2164.880371
267.220764 -292.824127 2164.417725
267.888977 -292.757507 2163.369385
284.150574 -292.398407 2163.529053
285.873444 -292.182404 2164.142822
244.634323 -291.101776 2164.942139
267.240906 -290.040436 2164.506836
267.906891 -289.892853 2163.339355
284.248047 -290.510559 2163.384521
285.573883 -290.072479 2164.641602
267.330963 -288.029175 2164.221191
267.830292 -288.178009 2163.279541
284.423553 -287.773438 2162.910400
285.420746 -287.338593 2164.191162
266.549255 -284.976196 2163.655273
284.695435 -285.693726 2162.718506
286.006226 -285.310974 2163.972412
266.140747 -282.781708 2163.573975
286.606262 -282.849213 2163.581787
264.303680 -279.901886 2164.067871
265.605225 -280.488922 2163.071777
287.379578 -281.024078 2164.157227
288.292938 -279.729584 2163.915283
290.118530 -279.528625 2164.842773
262.005768 -276.808929 2164.000732
263.967926 -277.608917 2163.535156
288.975891 -278.230988 2163.590332
290.566803 -278.102478 2164.389893
253.821671 -274.403595 2164.806641
258.065948 -274.036896 2164.904297
261.394409 -275.298584 2164.005615
263.428864 -275.293335 2163.031494
289.412781 -275.226685 2162.529297
290.282288 -273.995941 2163.079834
293.026978 -274.239929 2164.960938
254.338379 -272.220581 2164.212646
255.612808 -272.285553 2164.385742
259.600616 -272.322998 2164.038330
260.939117 -272.675476 2163.547363
262.887878 -273.415924 2162.719482
291.465698 -272.527161 2163.359375
293.275421 -272.605194 2164.297852
300.747375 -271.945801 2164.306641
303.512604 -272.373535 2164.600098
306.221008 -272.315430 2164.718018
254.808441 -270.918457 2164.028076
256.477234 -269.805237 2164.349121
258.376068 -270.505432 2164.277832
260.808563 -270.316986 2163.649170
291.426971 -270.035339 2162.621826
293.390381 -270.246643 2163.466797
295.623566 -269.453339 2164.541992
299.931366 -269.002686 2164.770996
300.505920 -270.728668 2164.114014
304.114197 -269.692596 2164.160156
306.181274 -269.955261 2164.368164
308.090332 -270.778381 2164.900391
251.587814 -266.642944 2164.924072
254.751633 -267.540161 2164.967773
256.084045 -267.874817 2164.471191
259.237122 -267.530487 2163.904541
260.454468 -267.506073 2163.349609
291.527008 -267.720276 2162.820557
292.817841 -267.334747 2163.375000
299.561707 -268.099274 2164.585205
300.756866 -267.977417 2164.549805
304.786530 -268.826660 2164.378906
305.729736 -268.786407 2164.699707
249.783249 -265.025513 2164.994629
251.827759 -265.157227 2164.881592
254.098083 -264.965881 2164.780029
256.305176 -265.482330 2164.652100
258.621429 -265.132477 2164.406494
260.852020 -265.202454 2163.005859
291.881714 -264.682281 2163.052734
293.742889 -264.437775 2164.066162
299.510864 -265.446991 2163.684570
300.056244 -266.406372 2164.068604
306.476227 -265.193451 2162.779785
308.702454 -264.602783 2163.340576
310.165131 -264.061859 2163.801758
250.336670 -263.715210 2164.977051
253.982010 -262.675415 2164.614502
256.318756 -263.111145 2164.772461
259.273438 -262.451813 2164.041260
260.475403 -263.075562 2163.483887
292.154327 -263.589691 2162.993164
293.660095 -262.908752 2164.172119
295.144073 -262.339294 2164.828369
298.107880 -262.714783 2163.455322
311.822083 -263.443970 2164.241211
313.738190 -262.893341 2164.795410
254.758484 -261.138947 2164.633545
255.839340 -260.180786 2164.630615
259.157867 -260.338867 2164.131348
260.206543 -260.769226 2163.131592
294.923767 -260.826965 2162.916016
296.028503 -259.631653 2163.206787
307.042297 -259.823059 2162.607178
308.679810 -260.438141 2163.307617
311.529572 -260.026611 2164.281250
313.708893 -259.493469 2164.604004
252.329712 -258.751740 2164.984131
253.242065 -257.474121 2164.869629
256.537109 -258.256744 2164.771484
258.977142 -257.775421 2163.851807
294.246338 -258.109467 2163.752197
296.690979 -257.902405 2163.793213
304.265167 -258.329193 2162.784424
305.673187 -257.113495 2163.485840
254.764053 -255.692963 2164.886475
259.442078 -254.861237 2163.490479
260.047729 -254.753159 2163.009033
296.905426 -255.688400 2164.479004
299.131165 -254.850174 2163.447510
302.272186 -255.646408 2162.672119
303.769257 -255.143219 2163.253418
306.752899 -254.788940 2164.249023
259.408295 -253.063431 2163.999268
260.936432 -252.819794 2164.062988
294.604065 -251.595444 2162.785645
300.520752 -252.564484 2163.884521
305.535187 -252.539658 2163.121826
261.368042 -250.701660 2164.110596
263.410065 -249.316742 2162.905518
289.481415 -249.110321 2163.310303
290.480957 -249.202805 2163.424561
294.156708 -250.263062 2163.935303
296.982666 -249.818573 2164.471191
298.132874 -250.666306 2164.647949
300.483307 -250.844788 2164.680664
305.718964 -250.014313 2163.875488
259.777863 -246.614563 2164.894287
260.755737 -248.156464 2163.452148
264.090118 -248.121490 2163.763428
266.156769 -247.398148 2163.713379
267.666077 -246.877747 2162.802490
286.973236 -248.518311 2162.823242
288.987854 -248.375473 2164.134277
290.764832 -247.351471 2164.582275
294.352264 -246.880676 2163.566406
295.689972 -247.894958 2164.205811
304.554382 -247.910461 2163.967285
306.041443 -248.236801 2164.741455
261.657928 -244.918259 2164.178467
263.928162 -244.911850 2164.388184
266.241455 -244.940781 2163.355469
267.583069 -244.306458 2162.598633
289.340332 -244.547455 2163.499023
291.372406 -246.067169 2163.836182
292.951874 -246.394577 2163.031006
261.557373 -242.404846 2164.535400
263.950378 -242.922119 2163.881104
266.162048 -242.538712 2163.500977
267.987335 -242.323639 2163.040283
286.986938 -242.876953 2162.698730
288.742310 -241.997177 2163.833984
290.791290 -242.623642 2163.134277
294.664520 -242.443909 2162.708252
295.883606 -241.894867 2163.640381
259.155731 -240.329636 2164.118408
261.532837 -240.724197 2163.515625
263.783813 -240.165497 2164.012207
266.319153 -240.238098 2163.358643
267.943604 -240.492767 2162.728760
287.098877 -240.633759 2162.618164
288.460571 -240.018677 2163.312012
290.298950 -239.419479 2164.583008
297.165771 -241.323929 2164.678955
263.585022 -237.890564 2164.341309
265.521484 -236.770538 2163.022217
289.362732 -237.603439 2164.019775
290.454224 -237.621521 2164.686035
264.236206 -234.893509 2164.393555
266.312866 -234.719345 2163.060303
288.873322 -234.910629 2163.980469
290.138000 -235.108597 2164.851318
266.154510 -232.856735 2163.969727
269.056671 -231.677124 2163.280273
270.199463 -231.783920 2162.611084
282.301758 -231.421295 2162.635010
283.424072 -232.041214 2162.596924
286.093445 -232.591461 2163.360107
288.134308 -233.471817 2164.385498
266.453156 -230.096527 2164.544922
268.636566 -230.686508 2163.705322
271.214386 -229.896637 2163.519531
272.683868 -230.332047 2162.697021
277.497711 -228.999512 2163.014404
277.632904 -229.234406 2162.748291
281.954468 -230.706085 2163.144775
283.943542 -231.232498 2162.910400
286.142761 -231.240784 2163.948242
271.096344 -228.022476 2164.744141
273.921539 -227.971237 2163.641602
277.056854 -228.405685 2163.907471
277.725555 -228.182190 2164.459961
281.035583 -228.851593 2164.760742
284.569885 -226.914246 2164.720703
283.700043 -225.241760 2164.845215
280.583344 -154.638763 2163.840088
231.914581 -397.242493 2166.465088
232.983398 -398.360016 2166.265381
229.716736 -394.549927 2167.119629
230.599121 -394.735809 2166.025146
227.037933 -391.883850 2167.108887
228.810684 -392.807922 2166.373291
230.808655 -393.776855 2165.363281
224.345932 -389.326782 2166.346436
226.699799 -390.639801 2165.843750
227.874619 -391.039185 2165.670898
221.429352 -386.872131 2166.851074
225.130615 -388.699127 2165.092773
221.026138 -385.105499 2166.232910
219.904724 -382.454620 2167.180664
220.387848 -381.683167 2166.284424
219.596832 -380.693726 2166.993164
220.705841 -380.993866 2165.540039
333.386566 -380.057373 2166.373047
219.186218 -377.538239 2166.146973
331.323486 -377.139130 2166.641113
331.356842 -375.009979 2166.433838
333.949127 -375.332489 2166.028564
335.303131 -374.720337 2167.186035
216.778229 -373.164551 2166.611816
217.933121 -372.669006 2165.306641
332.011536 -372.424225 2165.900146
333.966797 -372.603760 2166.707275
332.352692 -371.204895 2165.210449
333.828278 -370.133209 2165.849365
335.282074 -370.503723 2167.079346
215.748001 -367.620911 2166.376953
334.317932 -367.649414 2165.700439
336.586761 -366.929443 2166.497314
337.544586 -366.608948 2167.240234
216.363052 -364.282776 2166.161377
333.869476 -365.050140 2165.848389
335.082092 -364.535889 2167.154785
216.669891 -363.151672 2166.754639
218.395218 -362.978363 2165.264404
333.968384 -361.875793 2165.966064
335.184723 -363.871277 2167.479980
216.728439 -359.802795 2166.486572
217.742249 -359.118225 2165.278809
334.132446 -360.305115 2165.939697
335.787262 -359.251190 2166.389893
216.690201 -358.187531 2166.486084
218.028091 -357.332886 2165.579346
334.406219 -358.348053 2165.907471
335.802551 -358.494781 2166.850586
337.718964 -357.834503 2167.456299
216.874527 -354.857086 2166.458496
218.000809 -355.297119 2165.780762
334.390930 -355.143616 2166.622070
335.453918 -354.416443 2166.595215
216.993729 -352.299530 2166.976563
218.289398 -353.017242 2165.539307
334.341888 -351.678467 2165.661133
336.525055 -353.747437 2166.799805
215.774002 -349.102600 2167.284668
218.387848 -351.076599 2165.278320
334.310120 -349.525421 2165.769287
336.007660 -350.455444 2166.598145
216.580872 -347.639099 2166.090576
217.553207 -347.555084 2165.014404
334.218506 -348.163574 2165.346191
335.834900 -348.297668 2165.892578
337.973206 -347.463684 2166.951416
216.520386 -345.761475 2166.352783
216.962860 -342.356049 2166.383789
217.678925 -343.900055 2165.794922
334.795288 -342.705353 2165.485107
335.858551 -343.444977 2166.321045
337.507416 -342.990112 2167.412109
216.817535 -340.762207 2167.498779
217.894058 -340.118164 2165.986816
334.830994 -340.214844 2166.694336
335.892639 -339.923889 2166.404541
338.112671 -339.604187 2167.105713
217.306625 -337.774475 2167.204834
218.302338 -337.032410 2165.923340
336.432220 -337.458160 2166.122314
337.702637 -336.940216 2167.086426
336.047638 -334.145203 2166.324463
218.254745 -333.284332 2166.123779
335.905731 -333.386963 2166.590820
216.718292 -328.962524 2167.457764
218.483994 -329.707611 2165.662354
336.624023 -329.792999 2166.230469
217.293915 -328.135040 2167.094971
218.158249 -327.774261 2166.109375
332.174896 -327.296692 2165.090576
332.915314 -327.178253 2165.096924
218.407242 -326.321991 2165.367676
331.735291 -324.927460 2166.244385
332.551575 -324.891052 2167.422852
338.062805 -324.613647 2166.447510
337.389008 -322.890533 2165.116211
337.634399 -323.389618 2165.589355
217.028275 -319.154419 2167.266846
217.825027 -319.693054 2165.795898
334.908569 -320.818359 2165.173340
335.292938 -319.627197 2166.040283
218.667068 -317.296539 2166.067871
332.115173 -318.007813 2165.124023
333.813721 -317.267273 2166.782471
335.773682 -317.958740 2166.065430
218.934586 -315.895599 2165.999512
331.837219 -315.108673 2166.036865
333.564728 -314.727509 2166.877441
335.951599 -314.606232 2166.565430
217.157501 -311.710815 2165.282227
219.553024 -312.434906 2166.005127
220.384796 -312.729462 2165.582520
329.829010 -311.585205 2165.614746
331.200043 -313.074890 2166.197021
333.068878 -312.962189 2166.750977
216.349472 -310.637787 2166.472656
219.557144 -310.181885 2166.450684
220.435883 -309.865295 2165.655273
329.307678 -310.994385 2165.196533
331.441010 -309.946228 2167.401367
333.924194 -310.559937 2166.587646
219.627014 -307.592651 2166.969482
220.582626 -307.754913 2166.007080
329.198303 -306.630707 2165.961670
330.526215 -306.814789 2167.307373
221.330917 -305.209869 2165.894531
222.661728 -305.078400 2165.455322
330.251740 -306.063416 2167.365723
221.911896 -303.186676 2166.183350
223.483658 -302.076111 2165.803467
287.266205 -301.463135 2165.193115
287.659607 -301.562256 2165.078613
291.052704 -301.636200 2165.320313
293.466980 -301.691193 2165.324463
322.347473 -302.084778 2165.139893
323.801666 -302.347015 2165.433105
326.762329 -302.786316 2166.410645
328.106323 -303.455963 2166.683105
331.817749 -303.479279 2165.767090
332.863525 -303.446045 2166.949219
224.112122 -300.875397 2166.502686
226.732773 -300.239532 2166.182861
228.128937 -299.814362 2166.419189
257.364288 -298.975616 2165.047607
261.740509 -299.521454 2165.257568
262.685791 -298.993958 2165.324219
265.113525 -299.073456 2165.383057
286.829895 -300.065002 2165.686523
288.519653 -299.468781 2166.690430
291.361908 -299.836945 2166.852051
293.598389 -300.175507 2165.972412
295.977051 -299.953247 2165.506592
299.032196 -299.306274 2165.493408
300.933655 -299.142456 2165.352051
304.132416 -299.066406 2165.154053
305.873810 -299.057007 2165.121338
309.431122 -299.154388 2165.030518
311.716003 -299.105988 2165.240967
313.226501 -299.007050 2165.311035
323.949036 -300.495392 2166.255371
325.198212 -299.243469 2165.609863
228.999695 -298.411163 2166.983398
231.735474 -297.333099 2166.803711
233.455582 -296.834503 2166.252441
235.041260 -296.645416 2165.201172
257.260406 -297.987122 2166.031006
259.135468 -296.923523 2166.653320
261.055267 -297.973816 2165.708008
263.624603 -297.399567 2166.779297
265.876892 -297.621033 2165.878906
284.547607 -296.489197 2165.081543
286.516541 -297.962799 2166.495117
288.076324 -298.390625 2166.877441
291.301788 -298.280151 2167.164551
293.123413 -297.809845 2166.365234
296.085846 -298.134277 2166.946533
299.078857 -296.758972 2167.072510
301.345428 -297.833801 2166.081787
303.563324 -297.869354 2165.766602
306.058014 -297.453583 2165.483398
308.892151 -297.966553 2165.354004
311.570740 -297.877350 2165.699463
313.755371 -298.006470 2165.919678
316.198303 -298.061920 2166.266846
318.266022 -298.028137 2167.049316
320.823853 -298.330017 2166.679199
323.868561 -297.553162 2165.534668
325.969116 -298.034698 2166.750000
232.455414 -296.007202 2167.497314
233.872925 -295.405243 2166.807129
236.358276 -294.914032 2165.575195
237.910599 -294.589478 2165.190674
243.755371 -294.183472 2165.062744
246.370193 -294.688629 2165.294434
249.245529 -294.239594 2165.458740
251.059692 -294.412048 2165.697021
253.473053 -294.975159 2166.243896
256.263580 -295.481995 2166.529541
258.493927 -295.525452 2166.872070
263.883698 -296.162170 2167.198730
266.514496 -294.886322 2165.763184
284.735321 -295.073303 2165.372803
286.216125 -295.327820 2166.323730
288.200043 -295.323212 2166.301025
293.258820 -295.555634 2166.842773
299.741058 -296.048187 2167.354492
300.703003 -295.880005 2167.155029
303.392548 -295.565704 2166.797607
306.540985 -294.547180 2166.681396
309.293213 -294.796509 2166.312012
311.336487 -294.982178 2166.777100
313.424225 -295.087616 2167.032959
315.647766 -295.605225 2167.323975
234.404221 -293.289978 2166.655273
236.601959 -293.250977 2165.630859
238.555923 -293.210938 2165.290283
240.735687 -293.363953 2165.084473
243.640381 -292.454437 2165.535645
246.435501 -293.288147 2165.284912
248.688126 -293.213867 2165.451904
251.404236 -293.373535 2165.967285
253.571899 -293.180420 2166.852539
255.550873 -293.364624 2167.285156
257.973053 -293.380585 2167.322998
266.294373 -292.379791 2166.433350
284.669525 -292.946259 2165.394043
286.299225 -292.233124 2166.351807
287.944702 -292.852539 2166.726318
304.059479 -293.355743 2167.286377
306.634094 -293.281006 2167.159912
309.162659 -293.523499 2167.201416
310.258636 -293.165314 2167.341797
239.547852 -289.914307 2165.638672
241.038574 -289.990967 2165.694336
242.672607 -291.278015 2165.627441
246.279999 -289.551727 2165.600342
248.455536 -290.268127 2165.760986
266.573364 -290.280914 2166.010498
284.861298 -290.652161 2165.562744
285.920105 -289.717255 2165.799561
288.343781 -290.044006 2167.175537
310.885956 -290.891663 2167.141113
313.758728 -290.167969 2167.000000
238.564651 -288.150543 2166.888672
241.992706 -288.359711 2165.951172
243.621628 -286.884247 2166.941895
246.268845 -287.468872 2166.716797
247.670013 -286.753387 2166.983398
265.571045 -287.864807 2167.342773
286.920135 -288.174957 2166.230469
288.442474 -287.968658 2167.023926
236.112946 -286.057312 2167.471191
239.306839 -286.138214 2167.343994
241.411377 -285.872284 2167.166260
242.912323 -286.249298 2167.213379
248.081436 -286.222992 2167.387695
264.085632 -285.180023 2166.878906
265.119080 -284.244263 2165.061279
287.001099 -285.702362 2165.541748
288.219879 -285.026398 2166.466309
306.867126 -285.085815 2167.277344
308.233978 -285.857697 2166.885254
261.938263 -282.154297 2167.186279
263.238495 -282.335907 2166.574463
265.215271 -283.587036 2165.165771
288.047943 -282.740723 2165.647705
291.836395 -282.481049 2167.362549
292.516724 -281.475098 2167.258545
301.460144 -281.571777 2167.331543
309.056061 -283.147064 2167.456543
257.680481 -279.375427 2167.129150
262.069153 -280.264862 2166.028320
263.230591 -280.658112 2165.873535
289.350616 -280.469818 2165.375000
291.265717 -280.373596 2166.654541
292.754150 -280.652588 2167.151611
