# This PCD file was generated using the MATLABÂ® pcwrite function
# from Computer Vision System ToolboxÂ®.
# .PCD v.7 - Point Cloud Data file format
VERSION .7
FIELDS x y z
SIZE 4 4 4
TYPE F F F
COUNT 1 1 1
WIDTH 1390
HEIGHT 1
VIEWPOINT 0 0 0 1 0 0 0
POINTS 1390
DATA ascii
288.320221 -189.891998 2277.000000
290.632355 -189.654755 2278.000000
293.106445 -189.654755 2278.000000
295.736816 -189.891998 2277.000000
298.517822 -190.366547 2275.000000
301.291199 -190.841064 2273.000000
304.057068 -191.315613 2271.000000
306.666626 -191.552887 2270.000000
309.125610 -191.552887 2270.000000
311.439636 -191.315613 2271.000000
313.757416 -191.078339 2272.000000
316.361328 -191.315613 2271.000000
318.404388 -190.603821 2274.000000
320.321442 -189.654755 2278.000000
322.524597 -189.180206 2280.000000
324.468109 -188.231140 2284.000000
326.558441 -187.519348 2287.000000
328.919739 -187.282074 2288.000000
331.412781 -187.282074 2288.000000
333.905762 -187.282074 2288.000000
160.702454 -190.519592 2264.000000
163.150024 -190.519592 2264.000000
165.597656 -190.519592 2264.000000
168.301788 -190.758759 2263.000000
171.256805 -191.237091 2261.000000
174.204254 -191.715424 2259.000000
176.642365 -191.715424 2259.000000
179.080536 -191.715424 2259.000000
181.518677 -191.715424 2259.000000
183.956848 -191.715424 2259.000000
187.368164 -192.672089 2255.000000
191.005768 -193.867920 2250.000000
193.905884 -194.346252 2248.000000
197.511353 -195.542084 2243.000000
201.333588 -196.977081 2237.000000
204.665466 -197.933716 2233.000000
213.084991 -204.152039 2207.000000
217.725311 -206.543701 2197.000000
221.871490 -208.457031 2189.000000
225.987396 -210.370331 2181.000000
229.624268 -211.805328 2175.000000
231.903534 -211.805328 2175.000000
234.403381 -212.044495 2174.000000
236.680756 -212.044495 2174.000000
238.958130 -212.044495 2174.000000
243.384735 -214.436157 2164.000000
246.069244 -214.914490 2162.000000
249.379608 -216.110321 2157.000000
252.461792 -217.066986 2153.000000
254.906799 -217.306152 2152.000000
257.142578 -217.306152 2152.000000
259.174744 -217.066986 2153.000000
261.009033 -216.588654 2155.000000
263.050690 -216.349487 2156.000000
264.304535 -215.153656 2161.000000
265.381287 -213.718658 2167.000000
267.063080 -213.001160 2170.000000
269.332886 -213.001160 2170.000000
270.080017 -211.087830 2178.000000
271.045898 -209.413696 2185.000000
272.784424 -208.696198 2188.000000
274.534302 -207.978699 2191.000000
276.478333 -207.500366 2193.000000
278.248993 -206.782867 2196.000000
280.389008 -206.543701 2197.000000
282.178619 -205.826202 2200.000000
283.629181 -204.630371 2205.000000
nan nan nan
nan nan nan
nan nan nan
282.579956 -189.802094 2267.000000
284.204529 -188.606262 2272.000000
286.175720 -187.888763 2275.000000
288.320221 -187.410431 2277.000000
290.792419 -187.410431 2277.000000
293.264618 -187.410431 2277.000000
295.893127 -187.649597 2276.000000
298.672211 -188.127930 2274.000000
301.291199 -188.367096 2273.000000
304.057068 -188.845428 2271.000000
306.517944 -188.845428 2271.000000
308.978760 -188.845428 2271.000000
311.439636 -188.845428 2271.000000
313.757416 -188.606262 2272.000000
316.361328 -188.845428 2271.000000
318.404388 -188.127930 2274.000000
320.321442 -187.171265 2278.000000
322.524597 -186.692932 2280.000000
324.468109 -185.736267 2284.000000
326.558441 -185.018768 2287.000000
328.919739 -184.779602 2288.000000
331.412781 -184.779602 2288.000000
333.905762 -184.779602 2288.000000
160.702454 -188.062714 2264.000000
163.410339 -188.303772 2263.000000
165.856079 -188.303772 2263.000000
168.301788 -188.303772 2263.000000
171.511475 -189.026978 2260.000000
174.204254 -189.268036 2259.000000
177.144104 -189.750153 2257.000000
179.578461 -189.750153 2257.000000
182.012848 -189.750153 2257.000000
184.447205 -189.750153 2257.000000
187.368164 -190.232300 2255.000000
190.764374 -191.196533 2251.000000
193.666382 -191.678680 2249.000000
197.273712 -192.884003 2244.000000
200.626404 -193.848236 2240.000000
204.665466 -195.535706 2233.000000
213.084991 -201.803375 2207.000000
216.805084 -203.249756 2201.000000
221.643311 -205.901459 2190.000000
225.987396 -208.071045 2181.000000
229.848663 -209.758484 2174.000000
232.348511 -209.999573 2173.000000
234.844574 -210.240631 2172.000000
237.118164 -210.240631 2172.000000
239.174957 -209.999573 2173.000000
241.880280 -210.481689 2171.000000
245.217117 -211.687012 2166.000000
248.535049 -212.892334 2161.000000
251.415558 -213.615540 2158.000000
253.870026 -213.856598 2157.000000
256.115234 -213.856598 2157.000000
258.156921 -213.615540 2158.000000
260.202332 -213.374451 2159.000000
262.251526 -213.133392 2160.000000
263.710815 -212.169128 2164.000000
264.989258 -210.963806 2169.000000
266.674866 -210.240631 2172.000000
268.948425 -210.240631 2172.000000
269.889709 -208.553192 2179.000000
271.045898 -207.106781 2185.000000
272.970978 -206.624664 2187.000000
274.534302 -205.660400 2191.000000
276.295563 -204.937225 2194.000000
278.068115 -204.214020 2197.000000
280.031036 -203.731903 2199.000000
281.293152 -202.285492 2205.000000
283.103577 -201.562317 2208.000000
nan nan nan
nan nan nan
nan nan nan
282.412354 -187.098450 2268.000000
284.204529 -186.134186 2272.000000
286.175720 -185.411011 2275.000000
288.806091 -185.652069 2274.000000
291.272644 -185.652069 2274.000000
293.739136 -185.652069 2274.000000
296.361969 -185.893127 2273.000000
299.135376 -186.375244 2271.000000
301.596222 -186.375244 2271.000000
304.207672 -186.616333 2270.000000
306.815369 -186.857391 2269.000000
309.272430 -186.857391 2269.000000
311.584564 -186.616333 2270.000000
313.900452 -186.375244 2271.000000
316.502472 -186.616333 2270.000000
318.543640 -185.893127 2273.000000
320.458801 -184.928864 2277.000000
322.660034 -184.446747 2279.000000
324.601685 -183.482483 2283.000000
326.821838 -183.000366 2285.000000
329.309174 -183.000366 2285.000000
331.668579 -182.759277 2286.000000
334.157837 -182.759277 2286.000000
160.964661 -185.848785 2263.000000
163.410339 -185.848785 2263.000000
165.856079 -185.848785 2263.000000
168.301788 -185.848785 2263.000000
171.256805 -186.334717 2261.000000
174.204254 -186.820648 2259.000000
177.144104 -187.306549 2257.000000
179.827423 -187.549530 2256.000000
182.012848 -187.306549 2257.000000
184.202026 -187.063599 2258.000000
187.124878 -187.549530 2256.000000
190.522949 -188.521362 2252.000000
193.666382 -189.250275 2249.000000
197.036102 -190.222107 2245.000000
200.390686 -191.193970 2241.000000
203.262451 -191.679901 2239.000000
207.518341 -193.623596 2231.000000
219.565735 -203.828033 2189.000000
221.871490 -203.828033 2189.000000
225.761108 -205.528778 2182.000000
229.848663 -207.472504 2174.000000
232.348511 -207.715454 2173.000000
235.065155 -208.201385 2171.000000
237.336884 -208.201385 2171.000000
239.608582 -208.201385 2171.000000
241.880280 -208.201385 2171.000000
245.004089 -209.173248 2167.000000
247.901642 -209.902130 2164.000000
250.787827 -210.631012 2161.000000
253.247971 -210.873962 2160.000000
255.498856 -210.873962 2160.000000
257.546204 -210.631012 2161.000000
259.597290 -210.388062 2162.000000
261.652161 -210.145081 2163.000000
263.315063 -209.416199 2166.000000
264.597260 -208.201385 2171.000000
266.480713 -207.715454 2173.000000
268.756226 -207.715454 2173.000000
269.889709 -206.257690 2179.000000
271.234314 -205.042877 2184.000000
273.157532 -204.556946 2186.000000
274.534302 -203.342133 2191.000000
276.295563 -202.613220 2194.000000
277.887268 -201.641388 2198.000000
279.852051 -201.155457 2200.000000
280.761902 -199.211761 2208.000000
282.928375 -198.968781 2209.000000
nan nan nan
nan nan nan
nan nan nan
282.244690 -184.390991 2269.000000
284.370300 -183.905090 2271.000000
286.667297 -183.662109 2272.000000
289.130005 -183.662109 2272.000000
291.592773 -183.662109 2272.000000
294.213684 -183.905090 2271.000000
296.830811 -184.148041 2270.000000
299.444153 -184.390991 2269.000000
302.053711 -184.633972 2268.000000
304.508911 -184.633972 2268.000000
306.964081 -184.633972 2268.000000
309.419250 -184.633972 2268.000000
311.729492 -184.390991 2269.000000
314.043518 -184.148041 2270.000000
316.502472 -184.148041 2270.000000
318.543640 -183.419159 2273.000000
320.596191 -182.690277 2276.000000
322.931000 -182.447296 2277.000000
324.868866 -181.475433 2281.000000
327.085205 -180.989532 2283.000000
329.438965 -180.746552 2284.000000
331.924408 -180.746552 2284.000000
334.409851 -180.746552 2284.000000
161.226868 -183.638641 2262.000000
163.931000 -183.883514 2261.000000
166.372955 -183.883514 2261.000000
168.814850 -183.883514 2261.000000
171.511475 -184.128387 2260.000000
174.204254 -184.373230 2259.000000
177.394958 -185.107819 2256.000000
180.076385 -185.352692 2255.000000
182.259918 -185.107819 2256.000000
184.692383 -185.107819 2256.000000
187.124878 -185.107819 2256.000000
190.522949 -186.087280 2252.000000
193.426880 -186.576996 2250.000000
196.798492 -187.556458 2246.000000
199.919220 -188.291016 2243.000000
202.560944 -188.535889 2242.000000
206.358612 -190.005066 2236.000000
219.565735 -201.513550 2189.000000
222.784119 -202.493011 2185.000000
227.797546 -205.431335 2173.000000
230.073029 -205.431335 2173.000000
232.793488 -205.921082 2171.000000
235.726959 -206.655670 2168.000000
237.992981 -206.655670 2168.000000
240.475830 -206.900513 2167.000000
242.954865 -207.145386 2166.000000
245.217117 -207.145386 2166.000000
247.901642 -207.635101 2164.000000
250.369339 -207.879974 2163.000000
252.833252 -208.124817 2162.000000
254.882477 -207.879974 2163.000000
257.139038 -207.879974 2163.000000
259.395630 -207.879974 2163.000000
261.652161 -207.879974 2163.000000
263.512939 -207.390228 2165.000000
265.185272 -206.655670 2168.000000
267.063080 -206.165924 2170.000000
268.179565 -204.696777 2176.000000
270.460693 -204.696777 2176.000000
271.799652 -203.472443 2181.000000
273.717163 -202.982727 2183.000000
275.088287 -201.758423 2188.000000
276.478333 -200.534119 2193.000000
277.887268 -199.309814 2198.000000
279.494080 -198.330353 2202.000000
280.584808 -196.616333 2209.000000
282.753174 -196.371460 2210.000000
nan nan nan
279.044739 -184.373230 2259.000000
281.482880 -184.373230 2259.000000
282.244690 -181.924622 2269.000000
284.370300 -181.434906 2271.000000
286.667297 -181.190033 2272.000000
289.130005 -181.190033 2272.000000
291.592773 -181.190033 2272.000000
294.213684 -181.434906 2271.000000
296.830811 -181.679749 2270.000000
299.444153 -181.924622 2269.000000
302.053711 -182.169495 2268.000000
304.508911 -182.169495 2268.000000
306.815369 -181.924622 2269.000000
309.419250 -182.169495 2268.000000
311.729492 -181.924622 2269.000000
314.043518 -181.679749 2270.000000
316.361328 -181.434906 2271.000000
318.543640 -180.945190 2273.000000
320.596191 -180.210602 2276.000000
322.795532 -179.720856 2278.000000
324.735291 -178.741425 2282.000000
326.953552 -178.251709 2284.000000
329.438965 -178.251709 2284.000000
331.796509 -178.006836 2285.000000
334.283844 -178.006836 2285.000000
161.751282 -181.679077 2260.000000
164.191315 -181.679077 2260.000000
166.631378 -181.679077 2260.000000
168.814850 -181.432312 2261.000000
171.511475 -181.679077 2260.000000
174.457001 -182.172607 2258.000000
177.645813 -182.912903 2255.000000
180.325378 -183.159637 2254.000000
182.506989 -182.912903 2255.000000
184.937592 -182.912903 2255.000000
187.368164 -182.912903 2255.000000
190.281555 -183.406403 2253.000000
192.947845 -183.653168 2252.000000
196.560852 -184.886963 2247.000000
199.683502 -185.627258 2244.000000
202.093292 -185.627258 2244.000000
205.198914 -186.367523 2241.000000
208.523193 -187.354584 2237.000000
222.784119 -200.186127 2185.000000
226.666199 -201.913452 2178.000000
228.951141 -201.913452 2178.000000
232.126038 -202.900482 2174.000000
235.947540 -204.627808 2167.000000
238.211700 -204.627808 2167.000000
240.909454 -205.121338 2165.000000
243.384735 -205.368073 2164.000000
245.856216 -205.614838 2163.000000
248.323914 -205.861603 2162.000000
250.578583 -205.861603 2162.000000
252.833252 -205.861603 2162.000000
254.882477 -205.614838 2163.000000
257.139038 -205.614838 2163.000000
259.597290 -205.861603 2162.000000
261.851959 -205.861603 2162.000000
263.908752 -205.614838 2163.000000
265.577271 -204.874573 2166.000000
267.451294 -204.381042 2168.000000
268.756226 -203.147247 2173.000000
271.031677 -203.147247 2173.000000
272.176514 -201.666687 2179.000000
274.090271 -201.173157 2181.000000
275.272949 -199.692596 2187.000000
276.478333 -198.212036 2193.000000
277.706360 -196.731476 2199.000000
279.494080 -195.991180 2202.000000
280.407715 -194.017120 2210.000000
282.753174 -194.017120 2210.000000
277.473114 -183.159637 2254.000000
279.558960 -182.666138 2256.000000
281.482880 -181.925842 2259.000000
282.579956 -179.951752 2267.000000
284.867493 -179.705017 2268.000000
287.158844 -179.458252 2269.000000
289.453918 -179.211487 2270.000000
291.912903 -179.211487 2270.000000
294.688202 -179.705017 2268.000000
297.299683 -179.951752 2267.000000
299.907349 -180.198517 2266.000000
302.511230 -180.445282 2265.000000
304.810120 -180.198517 2266.000000
307.112793 -179.951752 2267.000000
309.566101 -179.951752 2267.000000
311.874451 -179.705017 2268.000000
314.186554 -179.458252 2269.000000
316.643616 -179.458252 2269.000000
318.682922 -178.717957 2272.000000
320.733521 -177.977692 2275.000000
322.931000 -177.484161 2277.000000
324.868866 -176.497131 2281.000000
327.216919 -176.250366 2282.000000
329.568787 -176.003601 2283.000000
332.052307 -176.003601 2283.000000
334.535889 -176.003601 2283.000000
162.013489 -179.478455 2259.000000
164.191315 -179.229797 2260.000000
166.631378 -179.229797 2260.000000
169.071411 -179.229797 2260.000000
171.766113 -179.478455 2259.000000
174.457001 -179.727112 2258.000000
177.645813 -180.473083 2255.000000
180.574341 -180.970398 2253.000000
182.754059 -180.721741 2254.000000
185.182770 -180.721741 2254.000000
187.368164 -180.473083 2255.000000
190.040161 -180.721741 2254.000000
192.947845 -181.219055 2252.000000
196.085632 -181.965057 2249.000000
199.212036 -182.711029 2246.000000
201.625610 -182.711029 2246.000000
204.503052 -183.208344 2244.000000
207.833038 -184.202972 2240.000000
211.147888 -185.197601 2236.000000
226.666199 -199.619843 2178.000000
228.951141 -199.619843 2178.000000
231.903534 -200.365814 2175.000000
234.182800 -200.365814 2175.000000
237.774292 -201.857758 2169.000000
240.475830 -202.355103 2167.000000
243.169800 -202.852417 2165.000000
245.643188 -203.101074 2164.000000
248.323914 -203.598389 2162.000000
250.578583 -203.598389 2162.000000
252.833252 -203.598389 2162.000000
255.087936 -203.598389 2162.000000
257.139038 -203.349731 2163.000000
259.597290 -203.598389 2162.000000
261.851959 -203.598389 2162.000000
263.908752 -203.349731 2163.000000
265.577271 -202.603760 2166.000000
267.451294 -202.106415 2168.000000
268.756226 -200.863129 2173.000000
271.031677 -200.863129 2173.000000
272.176514 -199.371185 2179.000000
274.090271 -198.873871 2181.000000
275.272949 -197.381897 2187.000000
276.478333 -195.889954 2193.000000
277.706360 -194.398010 2199.000000
279.494080 -193.652008 2202.000000
nan nan nan
275.219604 -180.970398 2253.000000
277.473114 -180.721741 2254.000000
279.558960 -180.224426 2256.000000
281.143829 -178.981140 2261.000000
282.915222 -177.986511 2265.000000
285.364746 -177.986511 2265.000000
287.486542 -177.489166 2267.000000
289.777832 -177.240509 2268.000000
292.233032 -177.240509 2268.000000
295.004547 -177.737854 2266.000000
297.768524 -178.235168 2264.000000
300.370544 -178.483826 2263.000000
302.816223 -178.483826 2263.000000
305.111328 -178.235168 2264.000000
307.261505 -177.737854 2266.000000
309.712891 -177.737854 2266.000000
312.019348 -177.489166 2267.000000
314.329590 -177.240509 2268.000000
316.784790 -177.240509 2268.000000
318.822144 -176.494537 2271.000000
320.733521 -175.499908 2275.000000
322.931000 -175.002594 2277.000000
325.002441 -174.256622 2280.000000
327.216919 -173.759308 2282.000000
329.698578 -173.759308 2282.000000
332.180237 -173.759308 2282.000000
334.661896 -173.759308 2282.000000
162.013489 -177.031067 2259.000000
164.451630 -177.031067 2259.000000
167.148224 -177.281616 2258.000000
169.327942 -177.031067 2259.000000
172.020752 -177.281616 2258.000000
174.709747 -177.532166 2257.000000
177.896667 -178.283844 2254.000000
180.823303 -178.784973 2252.000000
183.248230 -178.784973 2252.000000
185.427948 -178.534393 2253.000000
187.854767 -178.534393 2253.000000
190.281555 -178.534393 2253.000000
193.187378 -179.035522 2251.000000
196.085632 -179.536652 2249.000000
199.212036 -180.288300 2246.000000
201.625610 -180.288300 2246.000000
204.271118 -180.538879 2245.000000
207.602997 -181.541107 2241.000000
210.691589 -182.292786 2238.000000
214.447632 -183.796112 2232.000000
nan nan nan
231.013580 -197.075684 2179.000000
233.300415 -197.075684 2179.000000
236.899475 -198.579041 2173.000000
240.475830 -200.082367 2167.000000
243.169800 -200.583496 2165.000000
245.643188 -200.834045 2164.000000
248.323914 -201.335175 2162.000000
250.787827 -201.585724 2161.000000
253.040619 -201.585724 2161.000000
255.293396 -201.585724 2161.000000
257.546204 -201.585724 2161.000000
259.798950 -201.585724 2161.000000
262.051758 -201.585724 2161.000000
263.908752 -201.084595 2163.000000
265.577271 -200.332916 2166.000000
267.451294 -199.831818 2168.000000
268.563995 -198.328461 2174.000000
270.841370 -198.328461 2174.000000
271.988098 -196.825134 2180.000000
273.717163 -196.073456 2183.000000
274.534302 -194.069000 2191.000000
275.930023 -192.816193 2196.000000
277.525513 -191.813965 2200.000000
279.494080 -191.312866 2202.000000
nan nan nan
275.219604 -178.534393 2253.000000
277.646423 -178.534393 2253.000000
279.387573 -177.532166 2257.000000
280.974304 -176.279388 2262.000000
282.915222 -175.527710 2265.000000
285.198975 -175.277161 2266.000000
287.486542 -175.026611 2267.000000
289.777832 -174.776031 2268.000000
292.393097 -175.026611 2267.000000
295.162720 -175.527710 2265.000000
297.768524 -175.778259 2264.000000
300.370544 -176.028839 2263.000000
302.816223 -176.028839 2263.000000
304.960724 -175.527710 2265.000000
307.261505 -175.277161 2266.000000
309.712891 -175.277161 2266.000000
312.019348 -175.026611 2267.000000
314.329590 -174.776031 2268.000000
316.643616 -174.525482 2269.000000
318.682922 -173.773804 2272.000000
320.596191 -172.771576 2276.000000
322.795532 -172.270477 2278.000000
324.868866 -171.518799 2281.000000
327.216919 -171.268219 2282.000000
329.568787 -171.017670 2283.000000
332.052307 -171.017670 2283.000000
334.661896 -171.268219 2282.000000
162.275696 -174.836121 2258.000000
164.711945 -174.836121 2258.000000
167.148224 -174.836121 2258.000000
169.841003 -175.088593 2257.000000
172.530029 -175.341034 2256.000000
174.962494 -175.341034 2256.000000
177.896667 -175.845947 2254.000000
180.823303 -176.350861 2252.000000
183.495300 -176.603333 2251.000000
185.918304 -176.603333 2251.000000
188.098053 -176.350861 2252.000000
190.522949 -176.350861 2252.000000
192.947845 -176.350861 2252.000000
195.848022 -176.855774 2250.000000
198.740601 -177.360687 2248.000000
201.391785 -177.613129 2247.000000
204.039185 -177.865601 2246.000000
207.142883 -178.622955 2243.000000
209.778931 -178.875427 2242.000000
213.542542 -180.390167 2236.000000
nan nan nan
231.013580 -194.780182 2179.000000
233.741608 -195.285095 2177.000000
236.024658 -195.285095 2177.000000
238.307709 -195.285095 2177.000000
242.310120 -197.304749 2169.000000
244.791061 -197.557190 2168.000000
247.479370 -198.062103 2166.000000
250.160080 -198.567017 2164.000000
252.625900 -198.819489 2163.000000
254.882477 -198.819489 2163.000000
257.139038 -198.819489 2163.000000
259.597290 -199.071930 2162.000000
261.652161 -198.819489 2163.000000
263.512939 -198.314575 2165.000000
264.989258 -197.304749 2169.000000
266.674866 -196.547363 2172.000000
267.795105 -195.032623 2178.000000
270.080017 -195.032623 2178.000000
271.422791 -193.770355 2183.000000
273.344055 -193.265442 2185.000000
274.534302 -191.750702 2191.000000
275.930023 -190.488434 2196.000000
nan nan nan
nan nan nan
273.324097 -176.855774 2250.000000
275.745239 -176.855774 2250.000000
277.126526 -175.341034 2256.000000
279.044739 -174.583679 2259.000000
280.804779 -173.573853 2263.000000
283.082886 -173.321381 2264.000000
285.364746 -173.068939 2265.000000
287.650391 -172.816467 2266.000000
290.263733 -173.068939 2265.000000
292.873291 -173.321381 2264.000000
295.479065 -173.573853 2263.000000
298.081085 -173.826294 2262.000000
300.524902 -173.826294 2262.000000
302.968719 -173.826294 2262.000000
305.261963 -173.573853 2263.000000
307.558960 -173.321381 2264.000000
310.006561 -173.321381 2264.000000
312.164307 -172.816467 2266.000000
314.472656 -172.564026 2267.000000
316.784790 -172.311554 2268.000000
318.682922 -171.301727 2272.000000
320.596191 -170.291901 2276.000000
322.795532 -169.786987 2278.000000
325.002441 -169.282074 2280.000000
327.480286 -169.282074 2280.000000
329.958191 -169.282074 2280.000000
332.436066 -169.282074 2280.000000
334.913940 -169.282074 2280.000000
162.537903 -172.644989 2257.000000
164.972260 -172.644989 2257.000000
167.406647 -172.644989 2257.000000
170.097534 -172.899353 2256.000000
172.530029 -172.899353 2256.000000
174.962494 -172.899353 2256.000000
177.645813 -173.153687 2255.000000
180.574341 -173.662415 2253.000000
183.248230 -173.916748 2252.000000
185.918304 -174.171112 2251.000000
188.341339 -174.171112 2251.000000
190.522949 -173.916748 2252.000000
192.947845 -173.916748 2252.000000
195.610382 -174.171112 2251.000000
198.504852 -174.679810 2249.000000
200.924103 -174.679810 2249.000000
203.807220 -175.188538 2247.000000
206.912842 -175.951599 2244.000000
209.550781 -176.205963 2243.000000
212.637482 -176.969025 2240.000000
215.937195 -177.986450 2236.000000
218.999298 -178.749512 2233.000000
233.741608 -192.993378 2177.000000
236.024658 -192.993378 2177.000000
238.307709 -192.993378 2177.000000
239.945984 -192.230316 2180.000000
242.234711 -192.230316 2180.000000
245.156860 -192.993378 2177.000000
248.486115 -194.265167 2172.000000
251.174423 -194.773865 2170.000000
253.649689 -195.028229 2169.000000
256.121185 -195.282593 2168.000000
258.387207 -195.282593 2168.000000
260.653229 -195.282593 2168.000000
262.127655 -194.265167 2172.000000
263.813232 -193.502106 2175.000000
266.092499 -193.502106 2175.000000
267.987335 -192.993378 2177.000000
270.080017 -192.739044 2178.000000
271.422791 -191.467255 2183.000000
273.344055 -190.958557 2185.000000
nan nan nan
nan nan nan
270.109680 -176.714661 2241.000000
272.513794 -176.714661 2241.000000
273.855347 -175.188538 2247.000000
274.869232 -173.153687 2255.000000
276.606567 -172.136261 2259.000000
278.873291 -171.881927 2260.000000
280.804779 -171.118866 2263.000000
283.082886 -170.864502 2264.000000
285.364746 -170.610138 2265.000000
287.978088 -170.864502 2264.000000
290.587646 -171.118866 2263.000000
293.193420 -171.373199 2262.000000
295.795410 -171.627563 2261.000000
298.393646 -171.881927 2260.000000
300.679321 -171.627563 2261.000000
303.121216 -171.627563 2261.000000
305.563171 -171.627563 2261.000000
307.856384 -171.373199 2262.000000
310.153381 -171.118866 2263.000000
312.309235 -170.610138 2265.000000
314.615662 -170.355774 2266.000000
316.925903 -170.101440 2267.000000
318.822144 -169.084015 2271.000000
320.733521 -168.066589 2275.000000
323.066467 -167.812225 2276.000000
325.403198 -167.557892 2277.000000
327.743713 -167.303528 2278.000000
330.347595 -167.557892 2277.000000
332.691895 -167.303528 2278.000000
335.165955 -167.303528 2278.000000
162.800110 -170.457642 2256.000000
165.492889 -170.713898 2255.000000
167.923492 -170.713898 2255.000000
170.354065 -170.713898 2255.000000
172.784668 -170.713898 2255.000000
174.962494 -170.457642 2256.000000
177.645813 -170.713898 2255.000000
180.574341 -171.226410 2253.000000
183.495300 -171.738922 2251.000000
186.163513 -171.995178 2250.000000
188.827911 -172.251404 2249.000000
191.005768 -171.995178 2250.000000
193.187378 -171.738922 2251.000000
195.610382 -171.738922 2251.000000
198.504852 -172.251404 2249.000000
200.924103 -172.251404 2249.000000
204.039185 -173.020172 2246.000000
206.912842 -173.532684 2244.000000
209.550781 -173.788940 2243.000000
212.411194 -174.301453 2241.000000
215.488434 -175.070221 2238.000000
218.554352 -175.838959 2235.000000
221.167664 -176.095215 2234.000000
nan nan nan
nan nan nan
238.656464 -188.395416 2186.000000
240.956543 -188.395416 2186.000000
243.890015 -189.164154 2183.000000
247.021393 -190.189178 2179.000000
249.930298 -190.957947 2176.000000
252.827835 -191.726715 2173.000000
255.306900 -191.982971 2172.000000
257.782166 -192.239197 2171.000000
259.854065 -191.982971 2172.000000
261.533966 -191.214203 2175.000000
263.813232 -191.214203 2175.000000
265.316040 -190.189178 2179.000000
267.602875 -190.189178 2179.000000
nan nan nan
nan nan nan
nan nan nan
nan nan nan
nan nan nan
270.109680 -174.301453 2241.000000
272.513794 -174.301453 2241.000000
273.501160 -172.251404 2249.000000
274.869232 -170.713898 2255.000000
276.433289 -169.432617 2260.000000
278.701904 -169.176361 2261.000000
280.635254 -168.407623 2264.000000
282.915222 -168.151367 2265.000000
285.364746 -168.151367 2265.000000
287.978088 -168.407623 2264.000000
290.749603 -168.920105 2262.000000
293.353516 -169.176361 2261.000000
295.953613 -169.432617 2260.000000
298.393646 -169.432617 2260.000000
300.679321 -169.176361 2261.000000
303.273743 -169.432617 2260.000000
305.563171 -169.176361 2261.000000
307.856384 -168.920105 2262.000000
310.153381 -168.663849 2263.000000
312.309235 -168.151367 2265.000000
314.615662 -167.895111 2266.000000
316.784790 -167.382599 2268.000000
318.822144 -166.613831 2271.000000
320.733521 -165.588806 2275.000000
323.066467 -165.332550 2276.000000
325.403198 -165.076324 2277.000000
327.875397 -165.076324 2277.000000
330.217773 -164.820068 2278.000000
332.691895 -164.820068 2278.000000
335.039978 -164.563812 2279.000000
163.324524 -168.532257 2254.000000
165.753204 -168.532257 2254.000000
168.181915 -168.532257 2254.000000
170.354065 -168.274109 2255.000000
172.784668 -168.274109 2255.000000
174.962494 -168.015930 2256.000000
177.645813 -168.274109 2255.000000
180.325378 -168.532257 2254.000000
183.495300 -169.306702 2251.000000
186.163513 -169.564850 2250.000000
188.827911 -169.822998 2249.000000
191.488556 -170.081177 2248.000000
193.666382 -169.822998 2249.000000
195.848022 -169.564850 2250.000000
198.269135 -169.564850 2250.000000
200.924103 -169.822998 2249.000000
203.807220 -170.339325 2247.000000
206.682770 -170.855621 2245.000000
209.322601 -171.113770 2244.000000
211.958649 -171.371918 2243.000000
214.590942 -171.630066 2242.000000
217.219421 -171.888245 2241.000000
219.844116 -172.146393 2240.000000
222.465027 -172.404541 2239.000000
nan nan nan
238.656464 -186.086609 2186.000000
240.956543 -186.086609 2186.000000
243.890015 -186.861084 2183.000000
247.021393 -187.893677 2179.000000
249.930298 -188.668152 2176.000000
252.827835 -189.442596 2173.000000
255.306900 -189.700745 2172.000000
257.782166 -189.958893 2171.000000
259.854065 -189.700745 2172.000000
261.533966 -188.926300 2175.000000
263.813232 -188.926300 2175.000000
265.316040 -187.893677 2179.000000
267.602875 -187.893677 2179.000000
nan nan nan
nan nan nan
nan nan nan
264.932190 -171.371918 2243.000000
267.340088 -171.371918 2243.000000
269.386200 -170.855621 2245.000000
271.260925 -170.081177 2248.000000
272.969910 -169.048553 2252.000000
274.694031 -168.015930 2256.000000
276.606567 -167.241486 2259.000000
278.873291 -166.983337 2260.000000
280.974304 -166.467041 2262.000000
283.250488 -166.208862 2263.000000
285.696228 -166.208862 2263.000000
288.305786 -166.467041 2262.000000
291.073517 -166.983337 2260.000000
293.513550 -166.983337 2260.000000
296.111786 -167.241486 2259.000000
298.549927 -167.241486 2259.000000
300.833679 -166.983337 2260.000000
303.426208 -167.241486 2259.000000
305.713776 -166.983337 2260.000000
308.005096 -166.725189 2261.000000
310.447021 -166.725189 2261.000000
312.454163 -165.950714 2264.000000
314.615662 -165.434418 2266.000000
316.925903 -165.176270 2267.000000
318.961426 -164.401794 2270.000000
321.145630 -163.885498 2272.000000
323.472900 -163.627350 2273.000000
325.803955 -163.369202 2274.000000
328.270477 -163.369202 2274.000000
330.607178 -163.111053 2275.000000
332.947693 -162.852905 2276.000000
335.291992 -162.594727 2277.000000
163.848938 -166.614441 2252.000000
166.273834 -166.614441 2252.000000
168.440338 -166.354401 2253.000000
170.610596 -166.094360 2254.000000
173.039307 -166.094360 2254.000000
175.215240 -165.834290 2255.000000
177.645813 -165.834290 2255.000000
180.325378 -166.094360 2254.000000
183.248230 -166.614441 2252.000000
185.918304 -166.874512 2251.000000
189.071228 -167.654663 2248.000000
191.729980 -167.914703 2247.000000
194.145416 -167.914703 2247.000000
196.323242 -167.654663 2248.000000
198.504852 -167.394592 2249.000000
200.924103 -167.394592 2249.000000
203.807220 -167.914703 2247.000000
206.452728 -168.174744 2246.000000
209.094452 -168.434814 2245.000000
211.732391 -168.694855 2244.000000
214.142181 -168.694855 2244.000000
216.551971 -168.694855 2244.000000
218.961731 -168.694855 2244.000000
221.590210 -168.954895 2243.000000
224.648529 -169.735077 2240.000000
227.695526 -170.515228 2237.000000
231.157196 -171.815460 2232.000000
233.755432 -172.075531 2231.000000
237.605316 -173.895874 2224.000000
241.014038 -175.196136 2219.000000
242.554688 -174.155945 2223.000000
244.924744 -174.155945 2223.000000
nan nan nan
nan nan nan
nan nan nan
nan nan nan
nan nan nan
nan nan nan
258.469849 -169.995117 2239.000000
260.870178 -169.995117 2239.000000
262.524292 -168.954895 2243.000000
264.562866 -168.434814 2245.000000
266.426239 -167.654663 2248.000000
268.481812 -167.134552 2250.000000
270.723969 -166.874512 2251.000000
272.792816 -166.354401 2253.000000
274.694031 -165.574249 2256.000000
276.779907 -165.054138 2258.000000
279.044739 -164.794098 2259.000000
281.143829 -164.273987 2261.000000
283.585754 -164.273987 2261.000000
286.027710 -164.273987 2261.000000
288.633484 -164.534027 2260.000000
291.397430 -165.054138 2258.000000
293.833679 -165.054138 2258.000000
296.269958 -165.054138 2258.000000
298.706238 -165.054138 2258.000000
300.988098 -164.794098 2259.000000
303.578735 -165.054138 2258.000000
305.864380 -164.794098 2259.000000
308.153809 -164.534027 2260.000000
310.447021 -164.273987 2261.000000
312.454163 -163.493835 2264.000000
314.615662 -162.973724 2266.000000
316.784790 -162.453644 2268.000000
318.961426 -161.933533 2270.000000
321.283020 -161.673492 2271.000000
323.608398 -161.413422 2272.000000
326.071136 -161.413422 2272.000000
328.402161 -161.153381 2273.000000
330.737000 -160.893311 2274.000000
333.203552 -160.893311 2274.000000
335.544037 -160.633270 2275.000000
164.111145 -164.442291 2251.000000
166.534149 -164.442291 2251.000000
168.698761 -164.180359 2252.000000
170.867126 -163.918396 2253.000000
173.293945 -163.918396 2253.000000
175.720734 -163.918396 2253.000000
177.896667 -163.656433 2254.000000
180.574341 -163.918396 2253.000000
183.248230 -164.180359 2252.000000
186.163513 -164.704254 2250.000000
189.071228 -165.228149 2248.000000
191.971375 -165.752045 2246.000000
194.624420 -166.014008 2245.000000
196.798492 -165.752045 2246.000000
198.976318 -165.490082 2247.000000
201.157928 -165.228149 2248.000000
203.807220 -165.490082 2247.000000
206.682770 -166.014008 2245.000000
209.094452 -166.014008 2245.000000
211.732391 -166.275940 2244.000000
214.366547 -166.537903 2243.000000
216.551971 -166.275940 2244.000000
218.961731 -166.275940 2244.000000
221.371490 -166.275940 2244.000000
223.998108 -166.537903 2243.000000
226.835815 -167.061798 2241.000000
230.092041 -168.109589 2237.000000
233.122009 -168.895447 2234.000000
235.512848 -168.895447 2234.000000
239.562561 -170.991028 2226.000000
241.116455 -169.943237 2230.000000
243.499756 -169.943237 2230.000000
nan nan nan
nan nan nan
nan nan nan
nan nan nan
nan nan nan
nan nan nan
257.518188 -166.275940 2244.000000
259.927979 -166.275940 2244.000000
261.778076 -165.490082 2247.000000
264.008911 -165.228149 2248.000000
266.243469 -164.966187 2249.000000
268.481812 -164.704254 2250.000000
270.723969 -164.442291 2251.000000
272.969910 -164.180359 2252.000000
275.044434 -163.656433 2254.000000
277.126526 -163.132538 2256.000000
279.216125 -162.608643 2258.000000
281.482880 -162.346710 2259.000000
283.921021 -162.346710 2259.000000
286.524902 -162.608643 2258.000000
289.125031 -162.870605 2257.000000
291.559387 -162.870605 2257.000000
293.993774 -162.870605 2257.000000
296.428131 -162.870605 2257.000000
298.862488 -162.870605 2257.000000
301.296875 -162.870605 2257.000000
303.578735 -162.608643 2258.000000
305.864380 -162.346710 2259.000000
308.153809 -162.084747 2260.000000
310.447021 -161.822784 2261.000000
312.454163 -161.036957 2264.000000
314.472656 -160.251099 2267.000000
316.784790 -159.989136 2268.000000
318.822144 -159.203308 2271.000000
321.283020 -159.203308 2271.000000
323.608398 -158.941345 2272.000000
326.071136 -158.941345 2272.000000
328.402161 -158.679413 2273.000000
330.866821 -158.679413 2273.000000
333.203552 -158.417450 2274.000000
335.670044 -158.417450 2274.000000
164.111145 -162.010101 2251.000000
166.273834 -161.746246 2252.000000
168.698761 -161.746246 2252.000000
171.123657 -161.746246 2252.000000
173.548615 -161.746246 2252.000000
175.973480 -161.746246 2252.000000
178.398376 -161.746246 2252.000000
180.823303 -161.746246 2252.000000
183.248230 -161.746246 2252.000000
185.918304 -162.010101 2251.000000
188.827911 -162.537781 2249.000000
191.971375 -163.329346 2246.000000
194.384918 -163.329346 2246.000000
197.036102 -163.593170 2245.000000
199.447784 -163.593170 2245.000000
201.625610 -163.329346 2246.000000
204.039185 -163.329346 2246.000000
206.682770 -163.593170 2245.000000
209.094452 -163.593170 2245.000000
211.506134 -163.593170 2245.000000
214.142181 -163.857025 2244.000000
216.551971 -163.857025 2244.000000
218.961731 -163.857025 2244.000000
221.152802 -163.593170 2245.000000
223.347656 -163.329346 2246.000000
225.761230 -163.329346 2246.000000
228.813873 -164.120880 2243.000000
231.644043 -164.648590 2241.000000
234.257385 -164.912415 2240.000000
237.074310 -165.440125 2238.000000
239.472748 -165.440125 2238.000000
241.667603 -165.176270 2239.000000
243.866241 -164.912415 2240.000000
246.068649 -164.648590 2241.000000
248.076965 -164.120880 2243.000000
250.288849 -163.857025 2244.000000
252.310410 -163.329346 2246.000000
254.339523 -162.801636 2248.000000
256.756836 -162.801636 2248.000000
258.797302 -162.273926 2250.000000
261.031921 -162.010101 2251.000000
263.454926 -162.010101 2251.000000
265.877930 -162.010101 2251.000000
268.120087 -161.746246 2252.000000
270.544983 -161.746246 2252.000000
272.792816 -161.482391 2253.000000
275.044434 -161.218536 2254.000000
277.299805 -160.954712 2255.000000
279.387573 -160.427002 2257.000000
281.821930 -160.427002 2257.000000
284.423950 -160.690857 2256.000000
286.856415 -160.690857 2256.000000
289.452759 -160.954712 2255.000000
291.721344 -160.690857 2256.000000
294.153809 -160.690857 2256.000000
296.586304 -160.690857 2256.000000
299.018799 -160.690857 2256.000000
301.451263 -160.690857 2256.000000
303.731232 -160.427002 2257.000000
306.015015 -160.163147 2258.000000
308.302551 -159.899292 2259.000000
310.593872 -159.635468 2260.000000
312.599121 -158.843903 2263.000000
314.615662 -158.052368 2266.000000
316.784790 -157.524658 2268.000000
318.961426 -156.996979 2270.000000
321.283020 -156.733124 2271.000000
323.743866 -156.733124 2271.000000
326.204712 -156.733124 2271.000000
328.665558 -156.733124 2271.000000
330.996613 -156.469269 2272.000000
333.459351 -156.469269 2272.000000
335.796082 -156.205414 2273.000000
164.111145 -159.577881 2251.000000
166.534149 -159.577881 2251.000000
168.957184 -159.577881 2251.000000
171.380188 -159.577881 2251.000000
174.057892 -159.843628 2250.000000
176.479004 -159.843628 2250.000000
179.150970 -160.109375 2249.000000
181.570221 -160.109375 2249.000000
183.742371 -159.843628 2250.000000
186.163513 -159.843628 2250.000000
188.827911 -160.109375 2249.000000
191.729980 -160.640869 2247.000000
194.384918 -160.906616 2246.000000
197.273712 -161.438110 2244.000000
199.919220 -161.703857 2243.000000
202.327118 -161.703857 2243.000000
204.503052 -161.438110 2244.000000
206.912842 -161.438110 2244.000000
209.322601 -161.438110 2244.000000
211.506134 -161.172363 2245.000000
214.142181 -161.438110 2244.000000
216.551971 -161.438110 2244.000000
218.961731 -161.438110 2244.000000
221.152802 -161.172363 2245.000000
223.347656 -160.906616 2246.000000
225.976135 -161.172363 2245.000000
228.387817 -161.172363 2245.000000
231.010620 -161.438110 2244.000000
233.629639 -161.703857 2243.000000
235.830170 -161.438110 2244.000000
238.034485 -161.172363 2245.000000
240.446167 -161.172363 2245.000000
242.454468 -160.640869 2247.000000
244.670135 -160.375122 2248.000000
246.889587 -160.109375 2249.000000
249.112823 -159.843628 2250.000000
251.533951 -159.843628 2250.000000
253.955078 -159.843628 2250.000000
256.376190 -159.843628 2250.000000
258.797302 -159.843628 2250.000000
261.031921 -159.577881 2251.000000
263.454926 -159.577881 2251.000000
265.695190 -159.312134 2252.000000
268.120087 -159.312134 2252.000000
270.544983 -159.312134 2252.000000
272.969910 -159.312134 2252.000000
275.219604 -159.046387 2253.000000
277.646423 -159.046387 2253.000000
279.730377 -158.514893 2255.000000
282.330505 -158.780640 2254.000000
284.926819 -159.046387 2253.000000
287.353638 -159.046387 2253.000000
289.780457 -159.046387 2253.000000
292.045288 -158.780640 2254.000000
294.313904 -158.514893 2255.000000
296.902649 -158.780640 2254.000000
299.331360 -158.780640 2254.000000
301.760071 -158.780640 2254.000000
304.036224 -158.514893 2255.000000
306.316223 -158.249146 2256.000000
308.451233 -157.717651 2258.000000
310.740692 -157.451904 2259.000000
312.599121 -156.388916 2263.000000
314.615662 -155.591675 2266.000000
316.784790 -155.060181 2268.000000
318.961426 -154.528687 2270.000000
321.420410 -154.528687 2270.000000
323.879333 -154.528687 2270.000000
326.338318 -154.528687 2270.000000
328.797241 -154.528687 2270.000000
331.256226 -154.528687 2270.000000
333.587280 -154.262939 2271.000000
336.048096 -154.262939 2271.000000
164.635559 -157.680969 2249.000000
167.054779 -157.680969 2249.000000
169.474060 -157.680969 2249.000000
172.149811 -157.948608 2248.000000
174.821808 -158.216278 2247.000000
177.237244 -158.216278 2247.000000
179.652679 -158.216278 2247.000000
182.068146 -158.216278 2247.000000
184.236511 -157.948608 2248.000000
186.653870 -157.948608 2248.000000
189.071228 -157.948608 2248.000000
191.729980 -158.216278 2247.000000
194.145416 -158.216278 2247.000000
197.273712 -159.019196 2244.000000
200.154968 -159.554504 2242.000000
202.560944 -159.554504 2242.000000
204.966949 -159.554504 2242.000000
207.372925 -159.554504 2242.000000
209.778931 -159.554504 2242.000000
211.958649 -159.286865 2243.000000
214.590942 -159.554504 2242.000000
216.996918 -159.554504 2242.000000
219.402924 -159.554504 2242.000000
221.371490 -159.019196 2244.000000
223.564484 -158.751556 2245.000000
226.191071 -159.019196 2244.000000
228.600861 -159.019196 2244.000000
231.221771 -159.286865 2243.000000
233.629639 -159.286865 2243.000000
235.830170 -159.019196 2244.000000
238.034485 -158.751556 2245.000000
240.242584 -158.483917 2246.000000
242.454468 -158.216278 2247.000000
244.670135 -157.948608 2248.000000
246.889587 -157.680969 2249.000000
249.308823 -157.680969 2249.000000
251.728058 -157.680969 2249.000000
254.147308 -157.680969 2249.000000
256.566528 -157.680969 2249.000000
258.985779 -157.680969 2249.000000
261.218445 -157.413330 2250.000000
263.639587 -157.413330 2250.000000
265.877930 -157.145691 2251.000000
268.300964 -157.145691 2251.000000
270.902954 -157.413330 2250.000000
273.147003 -157.145691 2251.000000
275.570007 -157.145691 2251.000000
277.993042 -157.145691 2251.000000
280.073212 -156.610382 2253.000000
282.669556 -156.878052 2252.000000
285.262085 -157.145691 2251.000000
287.685120 -157.145691 2251.000000
289.944275 -156.878052 2252.000000
292.207214 -156.610382 2253.000000
294.473969 -156.342743 2254.000000
297.060852 -156.610382 2253.000000
299.487640 -156.610382 2253.000000
301.760071 -156.342743 2254.000000
304.341248 -156.610382 2253.000000
306.617432 -156.342743 2254.000000
308.748688 -155.807465 2256.000000
310.887512 -155.272156 2258.000000
313.033905 -154.736877 2260.000000
314.901764 -153.666290 2264.000000
317.067078 -153.130981 2266.000000
319.379211 -152.863342 2267.000000
321.832489 -152.863342 2267.000000
324.285767 -152.863342 2267.000000
326.739075 -152.863342 2267.000000
329.060638 -152.595703 2268.000000
331.515808 -152.595703 2268.000000
333.843079 -152.328064 2269.000000
336.174133 -152.060425 2270.000000
164.635559 -155.252563 2249.000000
167.054779 -155.252563 2249.000000
169.474060 -155.252563 2249.000000
171.893280 -155.252563 2249.000000
174.567169 -155.522125 2248.000000
176.984497 -155.522125 2248.000000
179.652679 -155.791656 2247.000000
182.068146 -155.791656 2247.000000
184.236511 -155.522125 2248.000000
186.653870 -155.522125 2248.000000
188.827911 -155.252563 2249.000000
191.247162 -155.252563 2249.000000
193.905884 -155.522125 2248.000000
196.798492 -156.061188 2246.000000
199.919220 -156.869843 2243.000000
202.327118 -156.869843 2243.000000
204.966949 -157.139374 2242.000000
207.372925 -157.139374 2242.000000
209.778931 -157.139374 2242.000000
211.958649 -156.869843 2243.000000
214.590942 -157.139374 2242.000000
216.996918 -157.139374 2242.000000
219.402924 -157.139374 2242.000000
221.590210 -156.869843 2243.000000
223.781281 -156.600281 2244.000000
226.405975 -156.869843 2243.000000
228.813873 -156.869843 2243.000000
231.221771 -156.869843 2243.000000
233.629639 -156.869843 2243.000000
235.830170 -156.600281 2244.000000
238.034485 -156.330750 2245.000000
240.242584 -156.061188 2246.000000
242.454468 -155.791656 2247.000000
244.470337 -155.252563 2249.000000
246.889587 -155.252563 2249.000000
249.504822 -155.522125 2248.000000
251.922180 -155.522125 2248.000000
254.339523 -155.522125 2248.000000
256.756836 -155.522125 2248.000000
259.174194 -155.522125 2248.000000
261.404999 -155.252563 2249.000000
263.639587 -154.983032 2250.000000
266.060730 -154.983032 2250.000000
268.481812 -154.983032 2250.000000
270.902954 -154.983032 2250.000000
273.501160 -155.252563 2249.000000
275.920410 -155.252563 2249.000000
278.339661 -155.252563 2249.000000
280.416046 -154.713470 2251.000000
283.008606 -154.983032 2250.000000
285.597351 -155.252563 2249.000000
287.850861 -154.983032 2250.000000
290.108154 -154.713470 2251.000000
292.369202 -154.443939 2252.000000
294.794098 -154.443939 2252.000000
297.218994 -154.443939 2252.000000
299.643921 -154.443939 2252.000000
301.914429 -154.174377 2253.000000
304.341248 -154.174377 2253.000000
306.617432 -153.904846 2254.000000
308.748688 -153.365753 2256.000000
310.887512 -152.826660 2258.000000
313.033905 -152.287567 2260.000000
314.901764 -151.209412 2264.000000
317.067078 -150.670319 2266.000000
319.379211 -150.400757 2267.000000
321.832489 -150.400757 2267.000000
324.285767 -150.400757 2267.000000
326.739075 -150.400757 2267.000000
329.060638 -150.131226 2268.000000
331.515808 -150.131226 2268.000000
333.843079 -149.861664 2269.000000
336.174133 -149.592133 2270.000000
165.422180 -153.638489 2246.000000
167.835724 -153.638489 2246.000000
170.249329 -153.638489 2246.000000
172.406342 -153.367035 2247.000000
175.076447 -153.638489 2246.000000
177.489990 -153.638489 2246.000000
179.903534 -153.638489 2246.000000
182.317108 -153.638489 2246.000000
184.730682 -153.638489 2246.000000
186.899048 -153.367035 2247.000000
189.071228 -153.095612 2248.000000
191.247162 -152.824158 2249.000000
193.666382 -152.824158 2249.000000
196.560852 -153.367035 2247.000000
199.447784 -153.909943 2245.000000
202.093292 -154.181366 2244.000000
204.966949 -154.724274 2242.000000
207.602997 -154.995697 2241.000000
210.007080 -154.995697 2241.000000
212.411194 -154.995697 2241.000000
214.815308 -154.995697 2241.000000
217.441895 -155.267151 2240.000000
219.623505 -154.995697 2241.000000
222.027618 -154.995697 2241.000000
224.214905 -154.724274 2242.000000
226.835815 -154.995697 2241.000000
229.026917 -154.724274 2242.000000
231.221771 -154.452820 2243.000000
233.629639 -154.452820 2243.000000
236.037537 -154.452820 2243.000000
238.239960 -154.181366 2244.000000
240.446167 -153.909943 2245.000000
242.454468 -153.367035 2247.000000
244.869919 -153.367035 2247.000000
247.285370 -153.367035 2247.000000
249.700836 -153.367035 2247.000000
252.116287 -153.367035 2247.000000
254.531738 -153.367035 2247.000000
257.137512 -153.638489 2246.000000
259.551086 -153.638489 2246.000000
261.778076 -153.367035 2247.000000
264.193542 -153.367035 2247.000000
266.426239 -153.095612 2248.000000
268.843567 -153.095612 2248.000000
271.260925 -153.095612 2248.000000
273.855347 -153.367035 2247.000000
276.270813 -153.367035 2247.000000
278.512970 -153.095612 2248.000000
280.758881 -152.824158 2249.000000
283.178101 -152.824158 2249.000000
285.597351 -152.824158 2249.000000
287.850861 -152.552734 2250.000000
290.271973 -152.552734 2250.000000
292.531128 -152.281281 2251.000000
294.794098 -152.009827 2252.000000
297.377197 -152.281281 2251.000000
299.643921 -152.009827 2252.000000
302.068848 -152.009827 2252.000000
304.341248 -151.738403 2253.000000
306.617432 -151.466949 2254.000000
308.599976 -150.652618 2257.000000
310.887512 -150.381165 2258.000000
313.033905 -149.838287 2260.000000
315.044800 -149.023956 2263.000000
317.349365 -148.752502 2264.000000
319.657715 -148.481079 2265.000000
322.107239 -148.481079 2265.000000
324.556732 -148.481079 2265.000000
326.872650 -148.209625 2266.000000
329.060638 -147.666748 2268.000000
331.515808 -147.666748 2268.000000
333.715179 -147.123840 2270.000000
336.174133 -147.123840 2270.000000
165.684387 -151.489136 2245.000000
168.356384 -151.762451 2244.000000
170.766174 -151.762451 2244.000000
173.175934 -151.762451 2244.000000
175.585724 -151.762451 2244.000000
177.995514 -151.762451 2244.000000
180.154419 -151.489136 2245.000000
182.317108 -151.215790 2246.000000
184.730682 -151.215790 2246.000000
187.144226 -151.215790 2246.000000
189.314514 -150.942444 2247.000000
191.729980 -150.942444 2247.000000
193.905884 -150.669098 2248.000000
196.323242 -150.669098 2248.000000
199.212036 -151.215790 2246.000000
201.625610 -151.215790 2246.000000
204.503052 -151.762451 2244.000000
207.372925 -152.309143 2242.000000
210.007080 -152.582489 2241.000000
212.637482 -152.855835 2240.000000
215.264069 -153.129181 2239.000000
217.664398 -153.129181 2239.000000
220.064697 -153.129181 2239.000000
222.465027 -153.129181 2239.000000
224.648529 -152.855835 2240.000000
227.265656 -153.129181 2239.000000
229.239929 -152.582489 2241.000000
231.432892 -152.309143 2242.000000
233.838898 -152.309143 2242.000000
236.244873 -152.309143 2242.000000
238.445435 -152.035797 2243.000000
240.853302 -152.035797 2243.000000
243.059509 -151.762451 2244.000000
245.469284 -151.762451 2244.000000
247.879074 -151.762451 2244.000000
250.288849 -151.762451 2244.000000
252.698639 -151.762451 2244.000000
255.108414 -151.762451 2244.000000
257.518188 -151.762451 2244.000000
260.116394 -152.035797 2243.000000
262.337738 -151.762451 2244.000000
264.747528 -151.762451 2244.000000
267.157288 -151.762451 2244.000000
269.567078 -151.762451 2244.000000
271.976868 -151.762451 2244.000000
274.209534 -151.489136 2245.000000
276.621216 -151.489136 2245.000000
278.859589 -151.215790 2246.000000
281.101715 -150.942444 2247.000000
283.347656 -150.669098 2248.000000
285.597351 -150.395752 2249.000000
288.016602 -150.395752 2249.000000
290.271973 -150.122406 2250.000000
292.693115 -150.122406 2250.000000
294.954163 -149.849060 2251.000000
297.377197 -149.849060 2251.000000
